# .PCD v0.7 - Point Cloud Data file format
VERSION 0.7
FIELDS x y z rgba
SIZE 4 4 4 4
TYPE F F F U
COUNT 1 1 1 1
WIDTH 1105
HEIGHT 1
VIEWPOINT 0 0 0 1 0 0 0
POINTS 1105
DATA ascii
0.18843888 0.027994288 1.0968001 16119026
0.19550155 0.026828134 1.0963848 16119027
0.20383385 0.026866816 1.0979999 16184820
0.16815086 0.03848229 1.098 16185334
0.17588867 0.035904597 1.0976084 16053490
0.18577787 0.03564214 1.0953748 15855855
0.19528057 0.035502575 1.0964999 15856111
0.20473999 0.03571976 1.0977498 15855854
0.21554786 0.037384287 1.0979998 15790061
0.22396645 0.038416427 1.097625 15592682
0.23267144 0.039214291 1.098 15329509
0.15894859 0.047057144 1.098 15065830
0.16554604 0.045306992 1.0978332 15066340
0.17536598 0.044884291 1.0960498 15131876
0.18559392 0.0448341 1.0948 15329511
0.19465981 0.045077872 1.0933529 15395047
0.20436306 0.0448341 1.0948 15461096
0.21491742 0.044860285 1.0954498 15395301
0.22507037 0.045013539 1.0951579 15132130
0.23349667 0.044836372 1.0971817 14737368
0.15606794 0.054851435 1.0976468 14276821
0.16500732 0.054305375 1.0965598 14408664
0.1752 0.054228563 1.0949998 14605530
0.1855734 0.054213338 1.0946797 14803166
0.19504295 0.054564573 1.0933999 14868958
0.20451227 0.05403731 1.0946666 14803423
0.21482852 0.054228578 1.0949998 14737372
0.22525713 0.05422857 1.0949998 14474453
0.23495369 0.054558195 1.0972103 9656437
0.24051429 0.055422857 1.098 8335954
0.15536326 0.065431848 1.0979999 13881807
0.16533956 0.064812623 1.0976248 13947857
0.1752 0.064657137 1.0949998 14013392
0.18562856 0.064657137 1.0949998 14079698
0.19526181 0.064299658 1.0937272 14210772
0.20514184 0.064669743 1.0914284 14144978
0.21532097 0.064488769 1.0921998 14079185
0.22525713 0.064657137 1.0949998 13749948
0.2350639 0.064454451 1.0978233 8661582
0.24111184 0.065730616 1.098 8139345
0.1577535 0.074395105 1.098 13750220
0.16530414 0.074973918 1.0973476 13684428
0.17519999 0.075085714 1.0949998 13553099
0.18562856 0.075085707 1.0949998 13618890
0.19501427 0.075085714 1.095 13618891
0.20430891 0.075054325 1.0945199 13618633
0.21460792 0.075011045 1.0938798 13618633
0.2247166 0.074811175 1.0951363 13749957
0.23454809 0.075545587 1.0977389 11173489
0.24245633 0.075590208 1.0979999 7611719
0.16661751 0.085216135 1.0974704 13289925
0.17519999 0.085514285 1.0949998 13158595
0.18562856 0.085514277 1.0949998 13158082
0.19501427 0.085514292 1.095 13092545
0.20440002 0.085514277 1.0949998 13158081
0.21482857 0.085514285 1.0949998 13289409
0.22492149 0.085796028 1.0951303 13289663
0.23457873 0.085378192 1.0969088 13289405
0.24200818 0.08335837 1.098 12301197
0.16773258 0.094741724 1.0979999 12895168
0.17556113 0.09509401 1.0972499 12894910
0.18575573 0.09496659 1.09575 12894652
0.19501427 0.094900005 1.0950001 12829117
0.20440005 0.094900005 1.095 12894908
0.21494828 0.094952859 1.0956 12829114
0.22441526 0.094866306 1.097 12829370
0.23214857 0.093068585 1.098 12894907
0.16731429 0.10038857 1.098 12698301
0.17149715 0.10038857 1.098 12698043
0.18686973 0.10075201 1.0974001 12631994
0.19443141 0.10461714 1.0966249 12500150
0.20442195 0.1042976 1.0951198 12434358
0.21509098 0.10441165 1.0963198 12368307
0.22318535 0.10277878 1.098 12499892
0.18753144 0.11154287 1.098 12106160
0.19491486 0.11391189 1.097842 11842217
0.2046728 0.11372152 1.0970526 11841962
0.21367429 0.11154287 1.098 11973803
0.1965943 0.12548572 1.098 8222594
0.18588954 -0.0021123812 1.1090001 16711422
0.18562546 0.00448881 1.1090001 16711422
0.19376305 0.0047010398 1.1084545 16711422
0.20546427 0.0061963182 1.1090002 16645628
0.21528682 0.0044007944 1.1089998 16513787
0.22421415 0.00724245 1.1090002 16579836
0.23024954 0.0084495246 1.1090001 15723759
0.1679343 0.01795524 1.1090001 16711422
0.17552836 0.01504497 1.1079564 16711422
0.18520084 0.015031721 1.1070869 16645629
0.19532405 0.014500248 1.105296 16579835
0.20521675 0.014729715 1.1049999 16579579
0.21512184 0.014759543 1.1072398 16579835
0.22491021 0.014762362 1.107476 16184819
0.23461506 0.014784127 1.1088332 16382454
0.24429063 0.016029246 1.1090001 16382198
0.25137335 0.01901143 1.1090001 15657451
0.15842858 0.029573334 1.1090001 16580093
0.16562308 0.026232783 1.1087893 16645886
0.17461818 0.025244569 1.1045197 16711165
0.18446667 0.02483446 1.1033636 16382456
0.19442438 0.02225562 1.1023 16316663
0.20633641 0.023089526 1.1020001 16316407
0.21517897 0.025150821 1.1045907 16184820
0.22498415 0.025426589 1.1047497 16250613
0.23565315 0.025109895 1.1057689 15987440
0.2454284 0.025277331 1.1059998 15329253
0.2537069 0.026186412 1.1087335 15131873
0.15754695 0.036448032 1.1070715 16645629
0.1646764 0.035101954 1.1046841 16645885
0.17182858 0.032054763 1.1035 16645884
0.18471618 0.031485714 1.102 16053747
0.20990476 0.031485714 1.102 16053491
0.21470261 0.032385308 1.1020001 15987441
0.22569756 0.033634972 1.1037145 15855854
0.23566587 0.035022493 1.1032856 15460838
0.24507335 0.035760954 1.1043998 15131873
0.25437224 0.035734065 1.1067141 15000543
0.26193523 0.038022861 1.1090001 14737115
0.13607256 0.046824448 1.1090002 15658478
0.14588451 0.045250759 1.1075999 16316405
0.15500028 0.044281818 1.1046665 16185077
0.16267619 0.041980952 1.102 16447735
0.23824191 0.044779684 1.1020001 13749451
0.24474761 0.045168452 1.1029376 10911905
0.25505948 0.044788402 1.1054089 11245737
0.26464868 0.045273218 1.10875 13948632
0.27038479 0.048584767 1.1090001 14407889
0.1280103 0.057456769 1.1090001 14935011
0.13493578 0.054815844 1.1069198 14934496
0.14517991 0.054705527 1.1046396 14474458
0.15244333 0.053525712 1.1020001 14276824
0.23929143 0.050377142 1.102 8331884
0.24606597 0.054692935 1.102158 8339316
0.2552191 0.054430049 1.1048634 12565170
0.26458117 0.054811429 1.1068 9928355
0.27132362 0.05539133 1.1090001 13948882
0.12779905 0.065483816 1.1090001 10653103
0.13474259 0.065266535 1.1053196 13225174
0.1451479 0.065213576 1.1043997 13947858
0.15456626 0.06430719 1.1020002 13882063
0.16162665 0.065070473 1.102 13882320
0.23719238 0.067169517 1.102 7546178
0.24698792 0.064720631 1.102 6369092
0.25527859 0.065130778 1.10305 7160420
0.26422191 0.065263331 1.1052998 8341885
0.27144098 0.065483816 1.1090001 13095889
0.12688017 0.076021597 1.1086669 12827563
0.13474257 0.075792477 1.1053196 9403786
0.14519614 0.075755216 1.1047597 13619148
0.15416338 0.075915553 1.102 13684428
0.16372572 0.078714281 1.102 13684174
0.24845089 0.075184062 1.1020002 7021636
0.2550343 0.075565711 1.102 7350858
0.26426455 0.074835993 1.1049998 10588571
0.27460957 0.075341605 1.109 13618887
0.12584572 0.084353045 1.1087648 6900339
0.13471469 0.085252285 1.1050998 7221863
0.1450526 0.085140862 1.10365 13290949
0.15549752 0.085106276 1.1031998 13421256
0.16267619 0.086060956 1.1020001 13355462
0.24628572 0.085665137 1.1023 12367004
0.25475159 0.085362107 1.1043682 12632746
0.26502806 0.084560826 1.1059523 13289924
0.27438721 0.083717011 1.109 13289666
0.12843277 0.093367249 1.1090001 6758728
0.13536844 0.094881117 1.1089998 8676733
0.14543645 0.09485358 1.1065997 13158339
0.15570028 0.094684124 1.1046398 13092292
0.1632743 0.095026195 1.1025002 13026498
0.22879618 0.098655231 1.102 12763066
0.23599294 0.096406259 1.1020002 12828858
0.24474052 0.094534293 1.1028999 12894652
0.25459257 0.094682269 1.1046398 12828860
0.26433071 0.0945893 1.1047142 12763577
0.27211311 0.095057152 1.1090002 12763319
0.13697979 0.10415664 1.1090002 12565945
0.14562571 0.10552914 1.1080397 12631740
0.15562919 0.10513117 1.1067389 12697532
0.16461863 0.10577423 1.1053332 12565947
0.17444703 0.10521205 1.1028749 12566200
0.1843164 0.10565205 1.102 12500151
0.22653569 0.10592117 1.1020002 12302770
0.23509327 0.10495237 1.1019998 12303028
0.24522357 0.10522616 1.1019999 12236974
0.25533545 0.10498677 1.1053635 12236719
0.26453012 0.10539506 1.1065998 12171180
0.27091289 0.10297857 1.1090001 12171694
0.14597666 0.11495799 1.109 12040116
0.15547118 0.11486667 1.1082942 12105396
0.16481119 0.11546113 1.105952 11974064
0.17463715 0.11572512 1.1046396 11908013
0.18448849 0.11608468 1.1034997 11776428
0.19381207 0.11894603 1.1020001 11447972
0.20615077 0.11935016 1.1025 11513508
0.21553549 0.11699349 1.1024288 11579305
0.22491764 0.11561286 1.1035597 11710634
0.23545267 0.1156266 1.1036798 11645096
0.24526405 0.11547467 1.1041427 11579044
0.25509524 0.11531868 1.1068 11513251
0.26422366 0.11459669 1.1090002 11512996
0.14681049 0.12110987 1.1090002 11579308
0.15631619 0.12322223 1.1090002 11316391
0.16435839 0.12490045 1.1081302 11053219
0.17485332 0.12534954 1.1059998 10790049
0.18531848 0.12530306 1.1055998 10328727
0.1952408 0.12492983 1.1027894 9406861
0.20539337 0.12496863 1.1042942 10064786
0.21490724 0.1253995 1.1049998 9803411
0.2249238 0.12510191 1.1058888 11052706
0.23480581 0.12550688 1.1068947 10921376
0.24521123 0.12583017 1.1087894 10920860
0.25491866 0.12481963 1.1087998 10855323
0.16582195 0.13425356 1.109 10263702
0.1753276 0.13519239 1.1089997 9472647
0.18550409 0.13440545 1.1085999 9210503
0.19474885 0.13514201 1.1078331 10197649
0.2048334 0.13495639 1.1086363 10065551
0.21497457 0.13464582 1.1084543 10263699
0.22439988 0.13356748 1.1090002 10460820
0.23477606 0.13292913 1.1090002 10395286
0.2448853 0.13292913 1.1090002 10329235
0.17110288 0.14152955 1.1090001 9736845
0.19504319 0.14188161 1.1090002 9672078
0.20278861 0.14364192 1.1090002 9606028
0.18606159 -0.0040146029 1.1156667 16711422
0.1952036 -0.0051449626 1.1152105 16711422
0.20586669 -0.0045325714 1.1150001 16711422
0.21462858 -0.004054545 1.1146364 16513786
0.22320001 -0.0026571429 1.1160001 16447991
0.17576966 0.0049053575 1.1143126 16711422
0.18135938 0.0037701589 1.1143334 16711422
0.19857334 0.00070666673 1.1130002 16711422
0.20484631 0.0012720001 1.1133001 16645629
0.22595553 0.0024236736 1.1138572 16645628
0.23554137 0.0048015048 1.114579 16053233
0.24467267 0.0050704763 1.1148334 16316404
0.25154287 0.0077942861 1.1160001 16382193
0.16679572 0.01564643 1.11375 16711165
0.1711657 0.011316191 1.1140001 16711422
0.24592002 0.011872 1.113 16514043
0.25434387 0.01473849 1.1149412 15987183
0.26146287 0.019131429 1.1160001 15394530
0.15637508 0.027220782 1.1149092 16448250
0.16267811 0.022633335 1.1140001 16645629
0.25793144 0.02290743 1.1136 15197409
0.26478165 0.026487226 1.1148946 14934237
0.27209145 0.028697144 1.1160001 14868698
0.13647087 0.037412573 1.1160001 16579836
0.1443903 0.037159424 1.1148001 16579836
0.15290649 0.034128834 1.1135454 16580092
0.26566625 0.034548905 1.1131766 14803164
0.27330613 0.034922447 1.1160002 14605526
0.12713048 0.046212863 1.1155002 15987697
0.13523906 0.042428575 1.11375 16316664
0.14363 0.04081 1.113 16645629
0.15052 0.040280003 1.113 16645629
0.26765001 0.04081 1.113 14605270
0.27507588 0.0446054 1.1151667 14407888
0.28059432 0.048891429 1.1160001 14407890
0.11904 0.05633143 1.1160001 15001061
0.12441343 0.054564293 1.11465 15461611
0.27643895 0.054748569 1.1132727 14210767
0.28059432 0.055268571 1.1160001 14211023
0.11797714 0.064834289 1.1160001 10783669
0.12322817 0.065479994 1.1140715 9991586
0.27677777 0.065248884 1.113 13816266
0.28363103 0.065593474 1.1160002 13947597
0.11743586 0.074748576 1.1154547 7477320
0.12235657 0.07400687 1.1133001 9203335
0.27809143 0.071114287 1.1145 13750474
0.28540057 0.074130341 1.1150002 13619144
0.29122287 0.075462863 1.1160001 13684680
0.11711913 0.084452748 1.1148462 6431035
0.12149225 0.085742868 1.1134286 5185086
0.27877998 0.087980002 1.113 13158080
0.28511226 0.084671929 1.1145883 13289921
0.29122287 0.082902864 1.1160001 13356478
0.11797714 0.09140572 1.1160001 6956615
0.12463778 0.095632389 1.1143335 6887995
0.13144001 0.099639997 1.113 8341872
0.27720499 0.095765002 1.114125 12697526
0.28239304 0.095166601 1.1160002 12698037
0.12803072 0.104125 1.115625 10854792
0.133295 0.106265 1.113 12436412
0.27542335 0.10546999 1.113 11908523
0.28101948 0.10458515 1.1160001 11908010
0.12966858 0.1116 1.1160001 12368823
0.13583626 0.11461515 1.1143045 12040372
0.14204 0.11872 1.113 11842735
0.26870999 0.11713 1.113 11315617
0.27450982 0.11409619 1.1138334 11315875
0.28059432 0.11372571 1.1160001 11118496
0.13745634 0.12198287 1.1151429 11514027
0.14566858 0.12592229 1.1148001 11053733
0.15306142 0.12690477 1.1135 10987429
0.2648977 0.12444003 1.1139001 10789786
0.27209145 0.12435429 1.1160001 10658201
0.1488 0.13285714 1.1160001 10395547
0.15512984 0.13448857 1.1148335 10329240
0.1626343 0.13810286 1.113 10000529
0.18338001 0.13992 1.113 9934485
0.20776001 0.13992 1.113 10066062
0.21835999 0.13886 1.113 10131855
0.22562858 0.13870858 1.113 10131598
0.23447202 0.13843599 1.113 10065809
0.24480411 0.13815594 1.1134286 10000271
0.2551893 0.13475715 1.1141251 10197394
0.15872002 0.14100574 1.1160001 9736078
0.16583431 0.14363584 1.1149092 9473931
0.17479655 0.14550212 1.1146001 9407880
0.18461488 0.14535944 1.1140501 9473675
0.1948857 0.14654534 1.1138572 9342859
0.20652336 0.14557336 1.113 9605771
0.21475306 0.14514287 1.1147144 9671306
0.2252063 0.14298399 1.1154002 9802634
0.23453717 0.14242285 1.1160001 9802381
0.24419144 0.14189143 1.1160001 9802634
0.25242859 0.14082858 1.1160001 9672330
0.18918858 0.15092573 1.1160001 9013896
0.19769144 0.15092573 1.1160001 9144709
0.20459756 0.1517788 1.1155716 9144708
0.21044573 0.15092573 1.1160001 9341574
0.18729667 -0.022003334 1.1270001 16711422
0.19581512 -0.023580136 1.1252859 16711422
0.20501997 -0.023703113 1.1243334 16645370
0.21470857 -0.023382166 1.1251818 16052976
0.22110668 -0.022540001 1.1270001 16448761
0.17650642 -0.013156327 1.1242144 16645628
0.18492103 -0.014969923 1.1223751 16711421
0.19475253 -0.015234454 1.1214349 16645627
0.20499772 -0.014950937 1.1210803 16447734
0.2148423 -0.014966666 1.1223 16514044
0.22440788 -0.014392654 1.1250952 16645628
0.2353843 -0.011528809 1.1259999 16382199
0.24416628 -0.01164245 1.1258571 16118770
0.25116003 -0.010733333 1.1270001 15987696
0.16928571 -0.0042895242 1.125 16317431
0.17514808 -0.0053414288 1.1214001 16645629
0.18431999 -0.0068266666 1.12 16711422
0.20373334 -0.0080000004 1.12 16711422
0.21582222 -0.007822223 1.12 16645885
0.22516881 -0.0064070341 1.1209232 16579578
0.23494843 -0.0053419038 1.1213502 16381685
0.24477333 -0.0051514842 1.1208825 16053234
0.25387448 -0.0044822511 1.1251819 15855853
0.16724074 0.0047739195 1.1234616 16711421
0.17185187 0.0030814817 1.12 16711422
0.23359999 0 1.12 16711419
0.24533331 0 1.12 16053232
0.25572258 0.0036402242 1.1215296 15789544
0.26423809 0.0051106876 1.1237779 15592423
0.27219737 0.0068693343 1.1270001 15263969
0.14597335 0.019320002 1.1270001 16579837
0.15589097 0.017945001 1.125 16645629
0.16346394 0.014298334 1.12275 16645629
0.25813335 0.010666667 1.12 16053742
0.26509088 0.014575238 1.1211741 15328993
0.2748884 0.015625324 1.1248822 14868443
0.28121334 0.018246669 1.1270001 14934749
0.12728786 0.027330954 1.1255 16579579
0.13517591 0.026061779 1.1241304 16579836
0.14545371 0.025665371 1.1229999 16579836
0.15395951 0.024025872 1.1213334 16579835
0.16 0.021333333 1.12 16579579
0.26773334 0.022399999 1.12 14802649
0.27587911 0.02526127 1.1208333 14671063
0.28449667 0.026262984 1.1241335 14539733
0.11666175 0.036566824 1.1238334 16579579
0.12439296 0.034328859 1.1231 16579579
0.13354667 0.034417782 1.12 16579836
0.14506668 0.033066671 1.12 16579836
0.27780741 0.03531852 1.12 14408145
0.28569517 0.034970976 1.1227647 14276558
0.29194671 0.03434667 1.1270001 14276561
0.10938287 0.046109527 1.126 15922163
0.11529576 0.044838626 1.1209601 16382714
0.12373333 0.043555554 1.12 16382456
0.1312 0.040533334 1.12 16383741
0.27946666 0.040533334 1.12 14474194
0.28537297 0.044638596 1.1215789 14276047
0.29377398 0.046183739 1.1257693 13947595
0.30053335 0.049373336 1.1270001 13618885
0.10729042 0.056035172 1.1248463 15066595
0.1143873 0.055263497 1.1200002 15066341
0.28564823 0.055475596 1.1201875 14210509
0.29481652 0.055615239 1.1229998 13816005
0.30268002 0.053666674 1.1270001 13355714
0.10507122 0.064778335 1.1247143 14474459
0.11306667 0.065066665 1.12 13024966
0.2872889 0.062577777 1.1200001 14210769
0.29508471 0.064998701 1.1217368 13618369
0.30214334 0.064936675 1.1270001 13223101
0.098746672 0.079426676 1.1270001 13618893
0.10491718 0.074942626 1.1241599 12234164
0.11306668 0.074361913 1.12 7608906
0.29608828 0.074613549 1.1209999 13553091
0.30308217 0.075835481 1.1255 13092280
0.098746672 0.084793337 1.1270001 13421767
0.10501483 0.085405968 1.1232916 11243923
0.11253333 0.085866675 1.12 7084095
0.28799999 0.089600004 1.12 13157822
0.29533944 0.085500784 1.1208572 13092027
0.3034848 0.084720016 1.126 12170157
0.097941667 0.094453335 1.127 13027010
0.10469488 0.095012777 1.1239523 12828080
0.11491111 0.095346667 1.1206666 7548230
0.1216 0.098133333 1.12 6227516
0.28757331 0.095573328 1.12 12566196
0.294469 0.095083304 1.1211053 12171183
0.30294836 0.093648337 1.127 11644327
0.1067491 0.10403658 1.1253999 12500665
0.11536936 0.10469013 1.12168 12104100
0.12389744 0.10584615 1.12 11707287
0.28619492 0.10502563 1.12 11710885
0.29396334 0.10475677 1.1224 11184544
0.30114669 0.10457335 1.1270001 10855834
0.10928573 0.11464667 1.125 11711154
0.11569425 0.1150482 1.1221304 11842740
0.12479999 0.11520002 1.1200002 12039860
0.13066667 0.11786667 1.12 11908529
0.2784 0.11946667 1.12 10921117
0.28569645 0.1155056 1.1203749 10855578
0.29403555 0.11531679 1.1233157 10526613
0.10948001 0.12128668 1.1270001 11250344
0.11605925 0.12463511 1.1251053 10987683
0.12502822 0.12503144 1.1220624 11184806
0.13354668 0.12558223 1.12 11250342
0.14250667 0.12672 1.12 11053476
0.27616733 0.12482449 1.1202142 10592152
0.28523588 0.12531854 1.1229411 10329232
0.29320511 0.12371873 1.1263335 10131850
0.11699335 0.13202001 1.1270001 10067094
0.12507811 0.13429153 1.1244501 9934741
0.13456053 0.13456586 1.1213602 10066325
0.14447512 0.13492562 1.1201431 10198168
0.15466666 0.13866667 1.12 9934483
0.26577002 0.13518976 1.1209472 10000272
0.27474684 0.1347041 1.1225002 9868686
0.28360677 0.13358946 1.1251334 9671558
0.12834287 0.14117715 1.123 8948617
0.1358519 0.14317366 1.1246668 8947849
0.14543189 0.14436905 1.1228498 9145227
0.15460682 0.1453962 1.1207896 9211018
0.16345619 0.14809334 1.1203001 9144710
0.17493334 0.14933333 1.12 9144964
0.21831112 0.14862221 1.1200001 9473927
0.22506666 0.14826667 1.12 9473672
0.2348 0.14693333 1.12 9539206
0.24542761 0.14695242 1.1204286 9342341
0.25531709 0.14638333 1.1214119 9276549
0.26424295 0.14432941 1.1242 9342597
0.27266067 0.14222795 1.1256669 9342085
0.14704669 0.15026668 1.1270001 8619138
0.15474749 0.1539841 1.1261429 8421500
0.16477723 0.15515277 1.1234999 8487294
0.17497976 0.15474035 1.1217368 8684416
0.18532038 0.155204 1.1215503 8684673
0.19493197 0.15515402 1.1202142 8881793
0.20507525 0.15647763 1.1215 8881793
0.21531716 0.15494713 1.1220001 9078659
0.22500353 0.15537687 1.1238947 8947584
0.23501505 0.15487771 1.1227367 8947071
0.24426833 0.15494615 1.1242144 8815997
0.25451508 0.15422843 1.1257693 8684667
0.26189336 0.15026668 1.1270001 8947839
0.16698319 0.16162033 1.1263335 7895929
0.17495336 0.16100001 1.1270001 8158589
0.18553336 0.16161335 1.1270001 8289915
0.195169 0.16189575 1.1237274 8421244
0.20424592 0.16211282 1.1247778 8421502
0.21430892 0.16135779 1.1270001 8618368
0.22486334 0.16100001 1.1270001 8552828
0.18695715 -0.030888572 1.138 16711422
0.19474287 -0.031377144 1.136 16711422
0.20532081 -0.031853653 1.1336668 16711421
0.21452369 -0.032877967 1.1343573 16185335
0.22472927 -0.032304492 1.136 15724270
0.23437381 -0.031701431 1.138 15790322
0.24060571 -0.030346667 1.138 16317945
0.17777951 -0.023543334 1.1365001 16645884
0.18459849 -0.025325844 1.1330668 16711422
0.19364983 -0.027400821 1.1314286 16711422
0.20681143 -0.028005715 1.131 16711419
0.21604411 -0.027390206 1.131 15393760
0.22594261 -0.02512381 1.1327858 15987183
0.23537397 -0.024646984 1.1360002 16513527
0.24467486 -0.024153845 1.1367693 16645628
0.25386819 -0.022094477 1.1372001 15921391
0.26011428 -0.02167619 1.138 15790574
0.16907428 -0.010838095 1.138 15658735
0.17369421 -0.015897144 1.1334548 16382970
0.22835429 -0.01831143 1.131 16711422
0.23558173 -0.017116573 1.1326002 16645629
0.24570364 -0.016536003 1.1322001 16250612
0.25517446 -0.015347669 1.1337895 15724012
0.26378697 -0.014235647 1.137143 15658475
0.16605452 -0.0048268135 1.1356155 15197670
0.1704143 -0.0064685717 1.1325001 15988723
0.25735888 -0.0073291431 1.1316001 15855596
0.26466316 -0.0056153662 1.1333332 15460838
0.2728017 -0.0040910053 1.1366667 15395302
0.15807512 0.007114558 1.1368573 16382196
0.16298382 0.0036983676 1.1333574 15987697
0.26820856 0.0010771429 1.131 15526632
0.27587479 0.0028775875 1.1344669 15329508
0.28380919 0.0064890054 1.1358181 14933980
0.29046094 0.0086704763 1.138 14867934
0.12874475 0.019474287 1.136 16579836
0.13481858 0.019414287 1.1325001 16579836
0.14516556 0.01746635 1.1346669 16579836
0.15541403 0.014194558 1.1343573 16579836
0.16157143 0.010771429 1.131 16580091
0.27790287 0.010771429 1.131 14802649
0.28536454 0.014746242 1.1330557 15000541
0.2934708 0.015496852 1.1373849 14868957
0.10838095 0.028179048 1.138 16513787
0.11516251 0.02629392 1.1358461 16579323
0.12402204 0.024060002 1.1337857 16579579
0.13248858 0.021542858 1.131 16579836
0.28652 0.021542858 1.131 14803164
0.29512903 0.024627555 1.1342669 14539733
0.30238289 0.026011428 1.138 14013388
0.099710472 0.039017145 1.138 15658473
0.10599861 0.036051303 1.1357335 16448506
0.11337563 0.032803681 1.1330669 16579323
0.29652974 0.034504004 1.1322001 14145231
0.3039884 0.034749877 1.1365266 13750729
0.09716139 0.04634133 1.1369334 15132389
0.10495602 0.045128435 1.1333811 15855855
0.29821473 0.04308572 1.131 13947853
0.30597028 0.045153279 1.1345791 13552836
0.31213719 0.047687616 1.138 13092282
0.095628358 0.054903921 1.1353335 14606302
0.10298667 0.054127622 1.1316668 15066340
0.30764547 0.05548327 1.1328572 13158077
0.31259593 0.055653881 1.1362858 12828855
0.09616971 0.06483753 1.1346501 14277079
0.10125143 0.063551426 1.131 14474459
0.30671957 0.064146668 1.132 12960955
0.3125619 0.064890668 1.1356 12565942
0.09503065 0.075221367 1.1339568 13750992
0.30744737 0.074476734 1.131 12566964
0.31431082 0.075456589 1.1357061 11908012
0.32254168 0.075216375 1.1380001 11117204
0.093944289 0.085038938 1.1338753 13355978
0.30806285 0.085094288 1.131 11710375
0.31493422 0.085033059 1.1361177 11316385
0.093412213 0.095071159 1.1343529 12960707
0.30776572 0.095753573 1.132875 11249568
0.31415623 0.095142864 1.1369334 10855579
0.32189143 0.097542852 1.138 9077890
0.095143907 0.1048821 1.1353003 11514288
0.10323786 0.10647358 1.1321251 12106423
0.30693293 0.10463005 1.1338888 10658201
0.096159592 0.11382358 1.1365265 11250857
0.10439461 0.11482509 1.1326669 11514287
0.30472064 0.113997 1.1345832 10198162
0.09908095 0.12290572 1.1370001 10528415
0.10518041 0.12387266 1.1352143 10790817
0.11109143 0.12727143 1.1325002 10527133
0.2964808 0.12684409 1.1314287 9803141
0.30185211 0.12442096 1.1360002 9606022
0.32189143 0.12138667 1.138 6908775
0.10729714 0.13330857 1.138 9672338
0.11357858 0.13543585 1.1331253 9540495
0.1213581 0.1371562 1.131 9539726
0.28846669 0.13739809 1.1330001 9143934
0.29537183 0.13536115 1.1352 8947069
0.30129907 0.13005714 1.138 9275776
0.1155162 0.14338572 1.13625 8355966
0.12474813 0.1454252 1.1338575 8421759
0.13366614 0.14752737 1.1318573 8422015
0.14002857 0.14864571 1.131 8619392
0.26928571 0.14864571 1.131 8947070
0.27571258 0.14724858 1.1335001 8882299
0.28505942 0.14496857 1.1350502 8684664
0.29462948 0.14372982 1.1380002 8025967
0.30129907 0.14523047 1.138 5395030
0.12672952 0.152367 1.1373334 7632500
0.13480023 0.15427501 1.1357499 7764089
0.14453551 0.15532549 1.1325717 8027513
0.1539347 0.15855429 1.1314287 8027000
0.24917905 0.15869905 1.131 8487544
0.25636002 0.15855543 1.131 8355190
0.26492429 0.15599145 1.1325001 8289654
0.27401745 0.15386315 1.1365716 8223856
0.28829333 0.15390095 1.138 6053205
0.29219505 0.15346743 1.138 4934218
0.13764381 0.1604038 1.138 7171184
0.14505778 0.16238096 1.1366667 7303278
0.15624213 0.16489267 1.134647 7434608
0.16467476 0.16611716 1.1338334 7566705
0.17503592 0.16625594 1.1325002 7829621
0.18495913 0.16638245 1.1321539 8026742
0.19496286 0.16695715 1.131 8026998
0.20553429 0.16728215 1.1313751 8092535
0.21543783 0.16601717 1.1319233 8289658
0.22522451 0.16591674 1.1322857 8223864
0.23547162 0.16527428 1.1330527 8223603
0.24538721 0.1649909 1.1335884 7960944
0.25433373 0.16492544 1.135 7632235
0.26393461 0.16319874 1.1373334 7500139
0.27095237 0.1604038 1.138 7565418
0.16566804 0.17186123 1.138 6908524
0.17566532 0.17303918 1.1365715 7105645
0.18511431 0.17320889 1.1366668 7368557
0.19496998 0.17334001 1.1357502 7434604
0.20489028 0.17378804 1.1349446 7434603
0.21443658 0.17389031 1.1364 7434603
0.22477375 0.17207153 1.1371113 7632237
0.234458 0.17241947 1.1362222 7368808
0.24513565 0.17200464 1.1366667 7040098
0.2514438 0.17124191 1.138 7040351
0.17899428 -0.030560002 1.146 16711422
0.18499188 -0.033474978 1.1438183 16711422
0.19502477 -0.035956193 1.1440001 16711422
0.20470984 -0.036582857 1.1446667 16711422
0.21518001 -0.038135242 1.1440001 16711422
0.22496888 -0.038263708 1.1442223 16645886
0.23544087 -0.035572063 1.1433334 16579835
0.24448889 -0.033605397 1.1443334 16580092
0.17547485 -0.025244629 1.1454287 15856113
0.18054476 -0.028278096 1.1420001 16711422
0.24580191 -0.028278096 1.1420001 16580094
0.25437209 -0.026164658 1.1446667 16119283
0.2641257 -0.021828571 1.146 15855597
0.16894349 -0.013051431 1.1420001 15922418
0.17214286 -0.018521905 1.1440001 15790577
0.26734793 -0.017413335 1.1426668 15724010
0.27399409 -0.013326138 1.1446668 15526632
0.16279873 -0.0050907936 1.1446667 14998753
0.27670532 -0.0071515646 1.1425717 15461097
0.2827062 -0.0046366667 1.145 15526629
0.15558401 0.0045733335 1.1440001 16184560
0.16096762 0 1.1420001 15064026
0.28648657 0.0018655785 1.1431431 15066078
0.29484576 0.0068109529 1.1445 14737114
0.3012343 0.0087314285 1.146 14540502
0.11569144 0.019645717 1.1460001 16579323
0.12474954 0.019065715 1.1440001 16579579
0.13642856 0.017462857 1.146 16579836
0.15226668 0.011963811 1.1420001 16580090
0.29772475 0.012517143 1.1430001 14737370
0.30332494 0.017430095 1.1440001 14276560
0.10650921 0.025900105 1.1437778 16513787
0.11435539 0.022373881 1.1420002 16579323
0.30730712 0.024700109 1.1442223 13816008
0.31302172 0.026630858 1.146 13355716
0.097137138 0.03929143 1.146 15198439
0.10291333 0.032943334 1.1435001 16119543
0.30888385 0.032628573 1.1420001 13553094
0.3126435 0.035222862 1.1427274 13223616
0.089497142 0.048022855 1.146 14474460
0.093467139 0.044142861 1.1445 14869218
0.31573117 0.044215515 1.1442858 12960700
0.088665396 0.055961907 1.1446667 13948114
0.091360018 0.055106036 1.1420001 14144980
0.31775784 0.053584766 1.1448572 12697272
0.088492282 0.065462008 1.1455556 13487308
0.09136001 0.065257147 1.1420001 13816785
0.31868303 0.06628409 1.1437144 12170929
0.32302284 0.06852001 1.1420001 11775902
0.088249527 0.075177141 1.1440001 13158085
0.31976002 0.071782857 1.1420001 11776429
0.088022865 0.084854029 1.1449091 13027268
0.09136001 0.084834285 1.1420001 13290442
0.31976002 0.082659051 1.1420001 11120034
0.32363683 0.083448462 1.1428889 10591891
0.087972492 0.095243603 1.1451111 12370367
0.32088 0.09604571 1.146 10789780
0.088784225 0.10374042 1.1448572 10724260
0.31609264 0.10491309 1.1430001 10197651
0.32232717 0.10566858 1.1451111 8418934
0.089497142 0.11132572 1.146 10790559
0.093100198 0.11789792 1.1420001 10593954
0.30996573 0.11678286 1.146 10001039
0.31633019 0.11435017 1.1453333 9144704
0.32273385 0.11520328 1.1442858 7171692
0.097053334 0.1243162 1.1450001 10199706
0.10235302 0.1284889 1.1433334 10132890
0.30752286 0.12518573 1.1430001 9277060
0.31896287 0.12213334 1.1450001 6710881
0.1034174 0.13523124 1.1438668 9080459
0.30561692 0.13545024 1.1435001 7893869
0.10644801 0.14375125 1.1452001 7633019
0.11469714 0.14736383 1.1433334 7763575
0.29626745 0.14704612 1.1420001 6842458
0.30398953 0.14193429 1.1420001 5986643
0.11762591 0.15204495 1.1436 7040365
0.12427725 0.15601523 1.1446667 6909035
0.13268954 0.15879241 1.1420001 7171443
0.27625525 0.15879241 1.1420001 7500648
0.28446341 0.15537553 1.1431431 7302756
0.29365718 0.15226668 1.1420001 5526080
0.13631047 0.1624819 1.145 6908269
0.14527622 0.16665447 1.1452 6908264
0.15226668 0.16821842 1.1420001 6973801
0.2566781 0.16966857 1.1420001 7040867
0.26605272 0.16660002 1.1433334 7040356
0.27555019 0.16402191 1.1443334 6710616
0.28213429 0.16316858 1.146 5198672
0.15561779 0.1719816 1.1453334 6710887
0.16437715 0.17471716 1.1430001 6645862
0.19468382 0.17836954 1.1420001 6974311
0.21752381 0.17836955 1.1420001 6974054
0.2254324 0.17751619 1.1435 6974309
0.23447323 0.17712764 1.1433334 6776931
0.24456064 0.176607 1.1446667 6842459
0.25470152 0.17374478 1.1442858 6646107
0.26303428 0.17026286 1.146 6712420
0.19754857 0.18117715 1.146 6644835
0.2046126 0.18067124 1.1428002 6579299
0.21342477 0.18075559 1.1433334 6644579
0.2324743 0.18117715 1.146 6382936
0.18675201 -0.042284191 1.1562001 16711422
0.19575012 -0.043147713 1.1535454 16711422
0.20482023 -0.045290899 1.1534998 16711422
0.21481957 -0.044816043 1.1520525 16711422
0.22508688 -0.044277515 1.1533076 16711422
0.23486498 -0.042771433 1.1547778 16711422
0.24438401 -0.042197332 1.1538 16380141
0.2503657 -0.041727617 1.153 15394775
0.16969334 -0.031955242 1.1570001 14803169
0.17546126 -0.034438092 1.1538887 16119543
0.18378112 -0.037855238 1.1520833 16711422
0.1949524 -0.039428573 1.1500001 16711422
0.20480955 -0.039428573 1.1500001 16711422
0.2354762 -0.039428573 1.1500001 16711422
0.24662137 -0.037979681 1.1503334 16447990
0.2550188 -0.034435119 1.1523124 15921388
0.26285216 -0.033305954 1.1560001 15395296
0.1684147 -0.024824761 1.1547143 14868448
0.17228192 -0.026021192 1.1503751 14737120
0.2584762 -0.027380954 1.1500001 15987184
0.26492417 -0.026146665 1.1518333 15790316
0.27182707 -0.023313144 1.1546 15724007
0.16669393 -0.014861247 1.1526922 15856112
0.17085715 -0.019714287 1.1500001 15329250
0.27599764 -0.018363811 1.151125 15658217
0.28388807 -0.014135239 1.1540713 15526632
0.29090288 -0.011019048 1.1570001 15329770
0.15675157 -0.0028212247 1.1521429 16053490
0.16309564 -0.0074742856 1.154 15593194
0.28796169 -0.0063033332 1.1507502 15329252
0.29505318 -0.0049063736 1.1539999 15000541
0.3019219 -0.0033057143 1.1570001 14605010
0.14674096 0.0059216116 1.1551538 16579836
0.15320881 0.0035616669 1.151125 16447734
0.29524255 0.0014609525 1.1509999 14802907
0.30388668 0.0054992381 1.1543999 14539990
0.10741884 0.018065397 1.1535555 16513787
0.11484359 0.014517567 1.1533332 16513787
0.12430522 0.014969414 1.1520587 16579579
0.13477467 0.014520881 1.1526922 16579836
0.14441057 0.012833994 1.1527693 16579836
0.15114287 0.010952381 1.1500001 16645628
0.30610335 0.013437144 1.152 14276050
0.31429869 0.017992953 1.1522999 13288890
0.097983815 0.027522858 1.156 16448507
0.10312819 0.024135811 1.1520001 16513787
0.31643429 0.024114922 1.1509999 13223608
0.32160193 0.025610795 1.1525 11445143
0.088152386 0.038566668 1.1570001 14935007
0.094451614 0.034934148 1.1532379 15461356
0.10076191 0.031761907 1.1500001 16119541
0.31855789 0.034734696 1.1500002 12894907
0.3244608 0.035544913 1.1551538 11643032
0.088514291 0.044986036 1.1521667 14540253
0.09102191 0.041673332 1.1515 14869474
0.31980953 0.044539686 1.1500001 12894140
0.3248508 0.044996828 1.1523333 11840924
0.33057144 0.048483815 1.1570001 9463920
0.085658327 0.055082053 1.1531538 13685457
0.32515118 0.053616326 1.1522856 11775389
0.33057144 0.05509524 1.1570001 9666422
0.083793707 0.064876199 1.1530768 13027272
0.32510096 0.063699476 1.1532222 11973287
0.079337142 0.079337142 1.1570001 11975102
0.083389588 0.074612193 1.1521332 12698561
0.078065716 0.084659994 1.1545 11514548
0.083303154 0.085327774 1.1509231 12435388
0.078126289 0.094636574 1.1553999 10921639
0.082961112 0.094657928 1.1512499 11449523
0.3251377 0.09323924 1.1518 10065294
0.079337142 0.10137524 1.1570001 10396572
0.084522024 0.10538285 1.1526248 10395290
0.086383812 0.11420747 1.1530833 10067609
0.090043806 0.11859429 1.153 10133146
0.31542861 0.1177381 1.1500001 9605252
0.093984775 0.12562175 1.152 9606551
0.31460726 0.12444001 1.1502 8092783
0.088152386 0.13443239 1.1570001 6119792
0.094325081 0.1348021 1.1529999 7501952
0.10076191 0.13800001 1.1500001 8028809
0.31214288 0.13252383 1.1500001 6448994
0.095286392 0.14277703 1.1519285 5592929
0.10322529 0.14646858 1.1508182 6449263
0.11280954 0.14895239 1.1500001 7368819
0.10766371 0.15356404 1.1535555 5528417
0.11452323 0.15551181 1.1511538 6317410
0.12310477 0.15946667 1.1500001 6579554
0.28804764 0.15990476 1.1500001 5788738
0.29242858 0.15990476 1.1500001 4802632
0.10980953 0.16032191 1.153 4537936
0.11579607 0.16390109 1.1517142 4079687
0.12509114 0.1655218 1.1521578 5331034
0.13487983 0.16629754 1.1532999 6579301
0.14192477 0.16822907 1.15075 6579556
0.26723814 0.16866669 1.1500001 6974561
0.27600002 0.16866669 1.1500001 5857088
0.28753906 0.16349524 1.1506001 4999238
0.29133335 0.16319048 1.1500001 5132360
0.13859999 0.17270191 1.155 5857630
0.1454149 0.17278425 1.1535454 6316384
0.1536662 0.1745238 1.1525 6447971
0.16453944 0.17814438 1.1518 6382435
0.17450796 0.17815875 1.1500001 6645605
0.18509525 0.17961906 1.1500001 6776932
0.19057144 0.17961906 1.1500001 6908262
0.24533334 0.17961906 1.1500001 6644051
0.25628573 0.17742859 1.1500001 5790800
0.26430234 0.17421006 1.151091 5988175
0.2723276 0.17203492 1.1530001 5594439
0.16527577 0.18239279 1.1552222 6184538
0.17405716 0.18065333 1.1538 6447970
0.18720803 0.18476698 1.1547778 6053722
0.19478422 0.18574734 1.1528234 5987160
0.20502961 0.18694948 1.1536152 5986643
0.21525742 0.18650965 1.1548572 5855831
0.22480264 0.1856475 1.1542499 5461844
0.23488477 0.18335858 1.151125 6184271
0.24438401 0.18285106 1.1537999 5003857
0.2540943 0.1815019 1.155 4079925
0.19503716 0.19173144 1.1570001 3291427
0.20054667 0.19173144 1.1570001 3489576
0.21817715 0.19173144 1.1570001 3613990
0.19567391 -0.05114324 1.1674001 16711422
0.20526192 -0.052151427 1.1650001 16711422
0.21491048 -0.05272121 1.1664547 16711422
0.22460479 -0.05226095 1.1675 16711422
0.23491335 -0.051955558 1.1690001 16711422
0.24159333 -0.051213335 1.169 16711421
0.25829333 -0.051213335 1.169 15590630
0.26163334 -0.051213335 1.169 15064527
0.16922668 -0.042306669 1.169 15923191
0.17523353 -0.044553284 1.1655334 16645885
0.18436955 -0.046468318 1.1652666 16711422
0.1947035 -0.047815874 1.1645555 16711422
0.2255657 -0.048651427 1.161 16711422
0.23562001 -0.047566667 1.1615001 16711422
0.24575762 -0.04660508 1.1650002 16382458
0.25546008 -0.045627989 1.1662308 15922932
0.2645379 -0.04530783 1.1665558 15921382
0.27200574 -0.042017143 1.161 15463388
0.16775145 -0.034440953 1.1665001 14803425
0.17204891 -0.038398731 1.1630001 15856629
0.25962859 -0.039942861 1.1650001 14212327
0.2659874 -0.037052818 1.1628182 15197671
0.27426678 -0.035280444 1.1661767 15132645
0.28167334 -0.031173335 1.169 15528166
0.14918667 -0.02004 1.169 16579836
0.15475333 -0.020782223 1.1690001 16580092
0.16446507 -0.024447037 1.1668462 15526118
0.27646324 -0.026141336 1.163 15065048
0.28508332 -0.025566192 1.1669999 14671325
0.29317778 -0.024122223 1.1690001 14606547
0.14740534 -0.014250666 1.169 16579836
0.15531951 -0.014271881 1.1666844 16579836
0.16324885 -0.016329179 1.1639091 16250866
0.28798097 -0.018276667 1.1630001 15066327
0.29420874 -0.015352225 1.165 14735314
0.3031978 -0.012617778 1.1690001 13748158
0.1169 -0.0022266668 1.169 16579579
0.12520719 -0.0041107694 1.1689999 16514043
0.13495743 -0.0053688521 1.1682941 16579836
0.14459679 -0.0057316292 1.1660528 16579836
0.15438606 -0.0064944774 1.1623335 16579836
0.16143428 -0.0088457139 1.161 16710133
0.29854286 -0.0088457139 1.161 14669264
0.30545771 -0.0057710484 1.1646 13814982
0.31122145 -0.0038833334 1.1650001 12367783
0.10599833 0.0077895243 1.1685001 16513787
0.11529507 0.0049417317 1.1660912 16513787
0.12500659 0.0041351519 1.1662731 16579579
0.13522904 0.0044289529 1.1638802 16579836
0.14387794 0.0030155843 1.1620911 16579836
0.15258859 0 1.161 16579579
0.30702001 0.0022114287 1.1610001 14472912
0.31465366 0.0048252107 1.1642944 12629926
0.097775243 0.016294606 1.1666666 16514043
0.10422159 0.014038729 1.1642002 16513787
0.11057143 0.011057143 1.161 16513787
0.12715714 0.011057143 1.161 16579579
0.13563429 0.011057144 1.161 16579836
0.31635177 0.012789843 1.1623334 13025452
0.089066669 0.027833333 1.169 15330027
0.094568789 0.024411218 1.1652225 16250613
0.086567797 0.035513766 1.1653637 14803424
0.091774285 0.03317143 1.161 15526893
0.32841906 0.035504766 1.1650001 10852740
0.33063811 0.035504766 1.1650001 8945028
0.084734105 0.04591905 1.1646 14079446
0.079885721 0.059914287 1.1650001 12699078
0.082749218 0.053563498 1.1636667 13487566
0.32876572 0.058971427 1.161 11775127
0.3317143 0.058602855 1.161 9665651
0.079611428 0.065237142 1.161 12370370
0.3317143 0.061919998 1.161 9863799
0.077595562 0.075752072 1.1640002 11777720
0.0743545 0.084977783 1.1672223 10725798
0.075447626 0.096528575 1.1650001 9739433
0.076665454 0.10603647 1.1667143 8357774
0.081822857 0.10836 1.161 10132631
0.075893611 0.11352587 1.1670001 7041395
0.082531013 0.11727408 1.1641111 8424331
0.077933334 0.12024 1.169 6906212
0.08556319 0.12479533 1.1658 7503230
0.090772703 0.12619366 1.1623334 9145485
0.087719999 0.13194858 1.161 6187642
0.090668574 0.13047428 1.161 8093832
0.12637715 0.17238429 1.164 3092545
0.13480715 0.17308952 1.165 5266266
0.14528382 0.17855716 1.1645 5266264
0.15519212 0.17858204 1.1615715 6250846
0.26979429 0.17691429 1.161 4864068
0.27358001 0.17611334 1.1630001 4342069
0.14740534 0.18347733 1.169 3289918
0.15513313 0.18329863 1.1672223 5266008
0.16392858 0.18576318 1.1656668 5266261
0.1761312 0.18557072 1.1650001 6381404
0.18377252 0.18694587 1.1644286 5857117
0.23441145 0.18797144 1.161 3954502
0.18787937 0.19158033 1.1650002 4472629
0.19431558 0.19283621 1.1636667 3159844
0.20637146 0.19305715 1.1650002 3226664
0.21450806 0.19391565 1.1644286 2763554
0.20625524 -0.06053143 1.177 16711422
0.21186 -0.06053143 1.177 16711422
0.23652096 -0.06053143 1.177 16711422
0.17654021 -0.051977146 1.1762002 16711422
0.18522856 -0.052462853 1.1747779 16711422
0.19645445 -0.054714292 1.1758573 16711422
0.2044508 -0.056711111 1.1752223 16711422
0.21533307 -0.057274293 1.1758573 16711422
0.22512192 -0.057120956 1.1760001 16711422
0.23457353 -0.056172859 1.1756668 16711422
0.24574549 -0.054522604 1.1748183 16711163
0.25332049 -0.054212894 1.1745387 16249319
0.16738699 -0.042870797 1.1743335 15592942
0.17330192 -0.049196195 1.174 16711422
0.25470859 -0.049154289 1.1730001 16711405
0.1642977 -0.033561092 1.1747144 15197155
0.28487146 -0.034631431 1.1730003 15129803
0.29045716 -0.032397144 1.1730001 13877926
0.14646763 -0.020684287 1.174 16579836
0.15623689 -0.025635671 1.1748184 16645627
0.16216984 -0.026844446 1.1743335 15986666
0.29418099 -0.027556192 1.1730001 14406584
0.12666762 -0.011209524 1.177 16514300
0.13568501 -0.01231143 1.1750002 16514300
0.14269143 -0.014762287 1.1742002 16579836
0.29716003 -0.017874287 1.1730001 13357011
0.30406708 -0.014311619 1.1738001 13684423
0.31056574 -0.011171429 1.1730001 12034710
0.11600731 -0.0044774609 1.1750001 16579579
0.12433986 -0.0083107492 1.1747144 16579579
0.30833143 -0.0089371437 1.1730001 13486786
0.31168288 -0.0089371437 1.1730001 12296856
0.09864381 0.0089676194 1.177 16382716
0.10578355 0.00366026 1.1748183 16579579
0.1117143 0 1.1730001 16579323
0.093930341 0.014057145 1.1741431 16119542
0.088223137 0.024290614 1.1747144 15395564
0.091605715 0.020108573 1.1730001 16053491
0.083226681 0.035352003 1.1746 14079963
0.078466669 0.045959048 1.177 13224139
0.081443571 0.0439431 1.1755 13619156
0.078466669 0.054926671 1.177 12698825
0.080434293 0.054740004 1.1730001 13027786
0.076764762 0.06624686 1.1750001 12040893
0.069380954 0.077212386 1.1750001 8622743
0.074072629 0.074632153 1.1740001 11251636
0.07149715 0.080434293 1.1730001 9676460
0.07149715 0.10948001 1.1730001 6775899
0.12958857 0.17650859 1.1730001 2826793
0.13294001 0.17650859 1.1730001 3222858
0.14124 0.17935239 1.177 5262157
0.15693335 0.18832001 1.177 3226176
0.16226 0.18800001 1.1750001 5397062
0.17874287 0.1899143 1.1730001 4873815
0.18097715 0.1899143 1.1730001 4939354
0.17576535 0.19145867 1.177 4082250
0.18411757 0.1937094 1.1747146 3420718
0.21628475 -0.070207618 1.189 15400681
0.22534381 -0.070207618 1.189 14675376
0.16872476 -0.062280949 1.189 16514794
0.17619848 -0.062054481 1.189 16711416
0.18542001 -0.062486857 1.1886001 16711422
0.19512357 -0.063539863 1.1852859 16711420
0.2043097 -0.064706899 1.181 16711416
0.21548817 -0.06511607 1.1842 16580345
0.22503398 -0.064028881 1.1826842 16711414
0.23353696 -0.06351196 1.1814445 16645873
0.24528117 -0.061883241 1.1814001 16250327
0.25194669 -0.06186191 1.1810001 13681306
0.1692899 -0.054772187 1.1882001 16645886
0.17457612 -0.056056116 1.1843847 16711422
0.18502173 -0.0575381 1.1846002 16711422
0.19355159 -0.057230484 1.1815716 16711422
0.20020764 -0.058487624 1.1810001 16711422
0.21145526 -0.058487624 1.1810001 16711422
0.24407336 -0.058487624 1.1810001 16711420
0.15740095 -0.040765714 1.189 16645885
0.16502859 -0.045474287 1.1858002 15724014
0.15580334 -0.034438573 1.1855 16645627
0.16219865 -0.036689531 1.1827143 15789030
0.2958124 -0.031493336 1.1810001 12689549
0.12795904 -0.020382857 1.189 16579579
0.1365189 -0.022221906 1.1863334 16579580
0.14592001 -0.024449846 1.1846669 16579836
0.15238921 -0.027777147 1.1823335 16580092
0.29783699 -0.026094479 1.1810001 13618090
0.30218607 -0.020995557 1.1810001 13947582
0.11574202 -0.012304127 1.1863334 16316665
0.1247856 -0.014998232 1.1850001 16513787
0.13414651 -0.016136827 1.1820002 16579580
0.30481049 -0.017996192 1.1810001 13879981
0.10630259 -0.0038672113 1.1838573 15856366
0.11335239 -0.0067580966 1.1823334 16316408
0.097433344 0.0067676194 1.1850001 15791860
0.10284255 0.0015009525 1.1823335 16120820
0.0870855 0.016563386 1.1858889 14606305
0.091787934 0.012790477 1.1850002 15660528
0.0792 0.026021905 1.1880001 13028811
0.08375787 0.02453405 1.1845001 14409183
0.077271536 0.035873652 1.1854445 13225932
0.081993915 0.033335622 1.1826001 13948634
0.07465452 0.044793099 1.1832501 12305348
0.068839051 0.055307619 1.1850001 9609123
0.073746666 0.055559326 1.1835716 11844286
0.068266667 0.06600529 1.185889 8883347
0.073103018 0.06370651 1.184 11252410
0.068842858 0.07335715 1.1850001 8751504
0.071984768 0.07310953 1.1810001 10398131
0.15184286 0.18896002 1.1810001 1119018
0.15667048 0.19282794 1.1863334 2364962
0.1644479 0.19314805 1.1850002 2172462
0.22155717 -0.070443809 1.1930001 15531237
0.1596 -0.061560001 1.197 13360068
0.16461602 -0.062471997 1.197 15067090
0.17535937 -0.06300889 1.1956668 16711407
0.19088002 -0.065899052 1.1930001 16711422
0.1596 -0.054720003 1.197 16645880
0.16473298 -0.055672254 1.1960001 16645627
0.15629907 -0.044303723 1.1955458 16645629
0.16190714 -0.046583813 1.1930001 16381682
0.13907999 -0.031919997 1.197 16448248
0.14636432 -0.033601429 1.196 16514042
0.1516597 -0.037916195 1.1943334 16645629
0.11856001 -0.020520002 1.197 16645373
0.12572801 -0.022777904 1.1958002 16579579
0.1350684 -0.027106855 1.1958002 16514300
0.14394641 -0.028594289 1.1941429 16514299
0.10868 -0.012159999 1.197 16449022
0.11557198 -0.016603811 1.1964287 16579836
0.12157239 -0.018179048 1.1930001 16579579
0.09804 -0.0022800001 1.197 15791345
0.10405427 -0.0061476198 1.1954001 15987699
0.095623493 0.0041755564 1.1953335 15000040
0.079533331 0.018179048 1.1930001 12635586
0.084851429 0.013650614 1.1947143 13552591
0.090895243 0.011361905 1.1930001 14737899
0.077323809 0.02672524 1.194 12238529
0.075829849 0.032606348 1.1943334 12240064
0.14881906 -0.057238098 1.202 12369574
0.15510385 -0.054709692 1.2027059 15856620
0.13782859 -0.041348577 1.2060001 16711421
0.14452547 -0.043589845 1.2044001 16645628
0.15248871 -0.045813337 1.2025715 16580092
0.12508762 -0.032133333 1.205 16579834
0.13592818 -0.034884628 1.2037143 16513784
0.14489417 -0.037940681 1.2020001 16645628
0.11556309 -0.023468133 1.2041539 15987697
0.12419949 -0.027509611 1.2034546 16579835
0.13126603 -0.029000636 1.202 16579836
0.098777153 -0.011485715 1.2060001 15857897
0.10571533 -0.01438788 1.2041819 15725554
0.11218667 -0.017171429 1.202 16711417
0.095977575 -0.0048393654 1.2028888 16119797
0.10150222 -0.0083949212 1.202 16448249
0.088220008 0.0060147615 1.2029999 14343900
0.092725717 0.0022895238 1.2020001 15264488
0.082422853 0.012592381 1.202 12832982
0.14664327 -0.051524896 1.2138573 15791081
0.15211429 -0.050704762 1.21 16512507
0.12833716 -0.041622858 1.2140001 13685944
0.13555849 -0.044573337 1.2124 14672347
0.14593524 -0.048648 1.2162001 16186871
0.11888953 -0.031163812 1.2120001 16449274
0.12731287 -0.036666192 1.2125001 16121329
0.13321523 -0.038259048 1.21 16579836
0.10794096 -0.021591112 1.2143335 15593197
0.11472191 -0.026363051 1.2144002 15657714
0.10536762 -0.016921908 1.2113335 15390945
0.095647618 -0.0080666672 1.21 15203563
