# .PCD v0.7 - Point Cloud Data file format
VERSION 0.7
FIELDS x y z rgba
SIZE 4 4 4 4
TYPE F F F U
COUNT 1 1 1 1
WIDTH 707
HEIGHT 1
VIEWPOINT 0 0 0 1 0 0 0
POINTS 707
DATA ascii
0.14737408 -0.013195607 0.94800007 16711422
0.15468954 -0.012880763 0.94800007 16711422
0.16793144 -0.010834287 0.94800007 16711422
0.17154287 -0.010834287 0.94800007 16711422
0.14761716 -0.0050785718 0.94800001 16711422
0.15529142 -0.0054171435 0.94800001 16711422
0.16486958 -0.0049460889 0.94800007 16711422
0.17500381 -0.0054171439 0.94800007 16711422
0.18358096 -0.0032101593 0.94800007 16711422
0.13707013 0.0070587019 0.94800007 16645886
0.14525558 0.0045096823 0.94733346 16711422
0.15489963 0.0045011439 0.94559985 16711422
0.16522285 0.0045142868 0.94800019 16711422
0.17515428 0.0045142863 0.94800007 16711422
0.18523134 0.004951153 0.94800001 16711422
0.19140573 0.0036114289 0.94800007 16711422
0.12730287 0.018960001 0.94800007 16645629
0.13481525 0.01564052 0.94754547 16645629
0.14492495 0.015301908 0.94516647 16711422
0.15480001 0.015300005 0.94499987 16711422
0.16494842 0.015320003 0.94641668 16711422
0.17482176 0.015317146 0.94619989 16711422
0.18502189 0.015343335 0.94766682 16711422
0.19515607 0.015904179 0.94800007 16711422
0.20095024 0.015993472 0.94800007 16711422
0.11872572 0.026182858 0.94800007 16645629
0.12601309 0.026053883 0.94800007 16645629
0.13446288 0.025230601 0.94616115 16645629
0.14500827 0.025191532 0.94468951 16711422
0.15493762 0.025224918 0.94583982 16711422
0.16471697 0.025202863 0.94509989 16711422
0.17480159 0.025230862 0.94607991 16711422
0.18506651 0.025277721 0.94790006 16711422
0.19460678 0.024869615 0.94800007 16711422
0.11655065 0.035293508 0.94800007 16645628
0.12475578 0.035294931 0.94790322 16645629
0.1343971 0.035067271 0.94619989 16645630
0.14487974 0.035098094 0.94486111 16711422
0.15521014 0.035193525 0.94750005 16711421
0.16468363 0.035098571 0.94491655 16711421
0.17471205 0.03512058 0.94559991 16711421
0.18485795 0.035164449 0.94683331 16711421
0.19416431 0.035582624 0.94787502 16711421
0.20224002 0.034308575 0.94800007 16711422
0.11661113 0.045332946 0.94800007 16448250
0.12459429 0.04514287 0.94800001 16514299
0.1342103 0.045038674 0.94579995 16382457
0.14508761 0.045058101 0.94619989 16382199
0.15517168 0.045108117 0.94727993 16316663
0.1647341 0.045008779 0.94519991 16447991
0.17462242 0.045006178 0.94511986 16382455
0.18467674 0.045044385 0.94589996 16447992
0.19501716 0.045142859 0.94800001 16579577
0.2017886 0.042885717 0.94800007 16645885
0.1170103 0.052726861 0.94800007 15526892
0.12513602 0.052185148 0.94800007 15658477
0.13451351 0.055069853 0.94791681 15460839
0.14528477 0.055047147 0.94750005 14802653
0.1551246 0.055016953 0.94699997 15000800
0.16486147 0.05495587 0.94591671 13749453
0.17493257 0.055008199 0.94679993 15066596
0.18487492 0.055014763 0.94691658 14803171
0.17791429 -0.040144764 0.95800006 16711422
0.14702895 -0.032288 0.95770007 16711422
0.15485063 -0.034181591 0.95642865 16711422
0.16491838 -0.034215529 0.95651859 16711422
0.17486466 -0.033535238 0.957389 16711422
0.1844313 -0.034018777 0.95800018 16711422
0.11769716 -0.021897145 0.95800012 16579836
0.12538722 -0.022679182 0.95800012 16645629
0.13510388 -0.023560911 0.95485723 16645630
0.14472124 -0.025630888 0.9535718 16711422
0.15507723 -0.025397971 0.95223343 16711422
0.16481136 -0.025358252 0.95084 16711422
0.17466919 -0.025214609 0.95299989 16711422
0.18518528 -0.025696063 0.95617867 16711422
0.19513445 -0.023708843 0.95742869 16711422
0.20163618 -0.021897145 0.95800012 16711422
0.10857334 -0.011860953 0.95800006 16645628
0.11493053 -0.014594441 0.95776004 16579836
0.12484483 -0.014581402 0.95686674 16645629
0.13516474 -0.015131259 0.95102972 16645629
0.14367619 -0.016466668 0.94999999 16711422
0.15521693 -0.01779365 0.94999993 16711422
0.1645419 -0.015536944 0.95000023 16711422
0.17480795 -0.015522124 0.95060021 16711422
0.18496001 -0.015417146 0.95200008 16711422
0.19426112 -0.014784968 0.95314276 16711422
0.2051045 -0.014651434 0.95714301 16711422
0.21228063 -0.011556826 0.95800006 16711421
0.10576321 -0.0055472767 0.95800006 13410485
0.11537232 -0.0053358292 0.95520699 15397104
0.12512732 -0.0055927481 0.95365387 16645629
0.1349061 -0.005433524 0.95070028 16645629
0.14308165 -0.0058163279 0.94999993 16711422
0.16421428 -0.0076904763 0.95000005 16711422
0.17235714 -0.0058809523 0.95000005 16711422
0.18521008 -0.0063865557 0.94999987 16711422
0.19480786 -0.0055590803 0.95062083 16711422
0.20533781 -0.0054549337 0.95400006 16711421
0.21467589 -0.0053142076 0.95579183 13934009
0.22116116 -0.0040144767 0.95800012 12413071
0.096256196 0.0062726196 0.95800012 9062779
0.10507228 0.0047693001 0.95694125 14405598
0.11513262 0.0045297891 0.95191681 13278143
0.12487067 0.0045238105 0.9501003 16645629
0.13368762 0.0034019053 0.95000011 16645629
0.18457144 0.001809524 0.94999999 16711422
0.19598535 0.0046630045 0.95000023 16711422
0.20507868 0.0044706548 0.95121884 16579830
0.21454465 0.0045053535 0.95258605 12874640
0.22434936 0.0053327684 0.95700008 11034748
0.088729054 0.015282381 0.95800012 10631786
0.095376603 0.015128736 0.95600003 10046569
0.10484359 0.015186036 0.95351529 9913722
0.11490476 0.015380951 0.95000035 13281215
0.12443957 0.014824178 0.95000023 16645629
0.13088889 0.012063492 0.95000005 16645629
0.19452381 0.011761906 0.95000005 16711422
0.20622113 0.015380954 0.95000029 16711421
0.21534289 0.015504501 0.95196545 14794419
0.22523768 0.014754616 0.95600009 11230842
0.23296128 0.017639367 0.95800006 10238846
0.088500947 0.024634285 0.95800012 14072480
0.095292494 0.024827458 0.95511764 12286079
0.10504267 0.025354819 0.95084 12882841
0.11427838 0.025194144 0.95000023 16185589
0.12304763 0.02434632 0.94999993 16645629
0.19844446 0.02834921 0.95000005 16711422
0.20538096 0.025333337 0.95000029 16711422
0.21566114 0.025374481 0.9514398 16711420
0.2256085 0.0248651 0.95435721 16050142
0.23363061 0.024731537 0.95783341 15787234
0.086878948 0.035075981 0.95800006 16579836
0.095456898 0.034631114 0.95523322 16579836
0.10491988 0.035423227 0.95132262 16579836
0.11193199 0.035156466 0.94999993 16645372
0.19874606 0.033777781 0.94999999 16711422
0.20554063 0.035338931 0.95000035 16711421
0.21560861 0.035330102 0.95119989 16711422
0.22527696 0.035287291 0.95431018 16711422
0.23410624 0.034563143 0.95800006 16711421
0.086925022 0.044623729 0.95800012 16119541
0.09513513 0.044922709 0.95500016 16382456
0.10460114 0.044923749 0.95048171 16514042
0.11153249 0.044909094 0.94999993 16447994
0.20586814 0.045586083 0.95000023 16579835
0.21549663 0.045153733 0.95137519 16645371
0.22548096 0.045406487 0.95492601 16514042
0.23314846 0.043794289 0.95800012 16645372
0.087159216 0.05442084 0.95800006 14868962
0.095507257 0.05482173 0.9534061 15000548
0.10505107 0.055246107 0.9509002 15066341
0.11452534 0.055569898 0.95000023 15263462
0.12458571 0.056638092 0.94999999 15263716
0.16743268 -0.052471027 0.96900004 16711422
0.17493272 -0.052500322 0.96899998 16711422
0.18303335 -0.052295245 0.96900004 16711422
0.19010858 -0.051680002 0.96900004 16711422
0.14867201 -0.042425144 0.9684 16711422
0.15570435 -0.043552559 0.96531826 16711422
0.16479181 -0.04526319 0.96508837 16711422
0.17439702 -0.045029838 0.96343344 16711422
0.18438429 -0.045034904 0.96628571 16711422
0.19386953 -0.04316223 0.96883327 16711422
0.20302859 -0.040605716 0.96900004 16711422
0.11634701 -0.032356884 0.96818179 16579836
0.12475857 -0.032687623 0.96675003 16645629
0.13551429 -0.032429893 0.9664616 16645629
0.14425132 -0.035825264 0.96573681 16711422
0.15381208 -0.037232384 0.96133339 16711422
0.16535303 -0.03844 0.96100008 16711422
0.17624871 -0.037655514 0.96100008 16711422
0.18521588 -0.035243336 0.9611668 16711422
0.19492251 -0.034769967 0.96261555 16711422
0.20509511 -0.03495378 0.9656921 16711422
0.21492884 -0.034537923 0.96818173 16711422
0.22379287 -0.031838574 0.96900004 16711422
0.096737161 -0.022800006 0.96899998 16579579
0.10552544 -0.02413445 0.96672404 16579836
0.11416062 -0.025614489 0.96282154 16579836
0.12456491 -0.027348168 0.96171451 16645629
0.13432677 -0.028697779 0.96166664 16645629
0.19664545 -0.028764628 0.96100008 16711422
0.20575356 -0.025405478 0.96125019 16711422
0.21494262 -0.02480565 0.96446651 16711422
0.22508511 -0.024908572 0.96859992 16711422
0.23071429 -0.020302858 0.96900004 16711422
0.088132858 -0.012458571 0.96900004 16579323
0.095069386 -0.014522925 0.96585709 16579835
0.10474197 -0.015075312 0.96150029 16579835
0.2160168 -0.014978355 0.96109116 16381433
0.22478475 -0.014871565 0.96428573 15059172
0.23383652 -0.013526668 0.96833324 14601196
0.085814178 -0.0048891925 0.96756524 15456484
0.094687358 -0.005694354 0.96196443 12545192
0.10104229 -0.0051253336 0.96100008 11354266
0.21965714 -0.0091523817 0.96100003 12677253
0.22589734 -0.0056869169 0.96131587 12282268
0.23538791 -0.0056672529 0.9663077 15391193
0.24260892 -0.0051269843 0.96899998 14407651
0.077499531 0.0064576203 0.96874994 16579579
0.085499793 0.004593757 0.96541661 12745372
0.093615785 0.0026149664 0.9610002 10831739
0.10067619 0.00091523811 0.96100003 15461089
0.22789428 0.00091523811 0.96100003 9855367
0.23487031 0.0044486402 0.96225011 12096431
0.24375775 0.0052511431 0.96764994 12680623
0.068291426 0.017534286 0.96900004 16513786
0.0751471 0.014946667 0.96755546 16513786
0.083775781 0.014405976 0.96186382 13143192
0.23601696 0.014455337 0.96131599 11494277
0.2448574 0.014633246 0.96586359 14535386
0.25207183 0.016347757 0.96900004 16711422
0.067214757 0.025224764 0.96899998 16514043
0.074517928 0.024842059 0.96608335 16513786
0.083293661 0.024713174 0.96108359 16446699
0.23872459 0.024558891 0.96100014 16382451
0.2449659 0.024769526 0.96333331 16645886
0.25216901 0.02476776 0.96835715 16711422
0.068291426 0.035068572 0.96900004 16316662
0.074493662 0.034951046 0.96576655 16513786
0.082066357 0.034168892 0.96100014 16579579
0.23887713 0.035007857 0.96100003 16711421
0.24476583 0.034836005 0.96255016 16711422
0.25335309 0.03522256 0.96789461 16711422
0.068291426 0.043835714 0.96900004 15789806
0.074458823 0.045048676 0.9653334 15790321
0.081848435 0.044977419 0.9610002 16053492
0.23759583 0.045273788 0.96100026 16645628
0.16722858 -0.062247626 0.97550011 16711422
0.17435838 -0.061835378 0.97528583 16711422
0.1854811 -0.061650347 0.97657162 16711422
0.19260859 -0.061411429 0.97700006 16711422
0.14887619 -0.050245717 0.97700006 16711422
0.15518276 -0.053927612 0.97455019 16711422
0.16432105 -0.056259226 0.97315007 16711422
0.17502055 -0.057105813 0.97233349 16711422
0.18559323 -0.056737907 0.97340012 16711422
0.19509128 -0.055583689 0.97396004 16711422
0.20289189 -0.052761324 0.97584623 16711422
0.21028763 -0.050245717 0.97700006 16711422
0.10979619 -0.040940955 0.97700006 16579836
0.1162954 -0.042428751 0.97618198 16580093
0.12096191 -0.041871428 0.97700006 16645629
0.13851276 -0.042334095 0.97480005 16711422
0.14522192 -0.043845188 0.97261113 16711422
0.1538537 -0.047952 0.97200006 16711422
0.18884572 -0.049988575 0.97200006 16711422
0.196128 -0.047520004 0.97200012 16711422
0.20579863 -0.044832658 0.97295243 16711422
0.21448721 -0.043799803 0.97515798 16711422
0.22145335 -0.040940955 0.97700006 16711422
0.09863048 -0.033497144 0.97700006 16579836
0.10550737 -0.034188312 0.97490919 16579836
0.11458645 -0.036634397 0.97305882 16579836
0.12523118 -0.036912903 0.97336376 16645629
0.13543507 -0.036909368 0.97291678 16645886
0.14163429 -0.038880002 0.97200006 16711422
0.21691558 -0.038933333 0.97333336 16711422
0.22512449 -0.035325043 0.97300005 16711422
0.23229238 -0.034380477 0.9756251 16711422
0.086902566 -0.022728203 0.97553867 16579323
0.094058305 -0.026757145 0.97250009 16579579
0.10368001 -0.029622858 0.97200006 16579836
0.23481876 -0.024838507 0.9736957 16711422
0.24099335 -0.022331432 0.97700006 16711422
0.078885719 -0.011137143 0.97450006 16513787
0.084117219 -0.015233255 0.97420835 16513787
0.090720005 -0.017588571 0.97200006 16579579
0.23724321 -0.016667092 0.97222221 16514813
0.2442417 -0.014099431 0.97386676 16711421
0.068855241 -0.0037219049 0.97700012 16513786
0.075221471 -0.0054338272 0.97306913 16513786
0.08192572 -0.0078685721 0.97200006 16579323
0.24695966 -0.0058926404 0.97218186 16383738
0.25154072 -0.0048778574 0.97550011 16711422
0.067245461 0.005199112 0.97526681 16513786
0.073600307 0.003702858 0.97208345 16513786
0.24878573 0.0039342856 0.97200006 15530744
0.25444278 0.0048909099 0.97472751 16711422
0.26127774 0.0078160008 0.97700006 16711422
0.064913929 0.014837007 0.97376198 16513786
0.070354283 0.012960001 0.97200006 16513786
0.24994285 0.011108572 0.97200006 16711422
0.25667366 0.014202116 0.97255558 16711422
0.26284078 0.014860761 0.97520012 16711422
0.059504766 0.026962383 0.97625005 15066087
0.063072391 0.024796829 0.97233337 16119542
0.25774667 0.025125952 0.97262508 16711422
0.26390237 0.025321551 0.97568762 16711422
0.059550475 0.035358097 0.97700006 15395301
0.064533509 0.035208616 0.97286975 15855854
0.25898033 0.034570795 0.97233343 16711422
0.26471058 0.035690933 0.97542119 16711421
0.059550475 0.044662859 0.97700006 14802912
0.064440489 0.045224763 0.97241682 15395559
0.15996191 -0.071512386 0.98800004 16711422
0.16618618 -0.07216382 0.98724997 16711422
0.17503969 -0.073026359 0.98724997 16711422
0.18348572 -0.071512386 0.98800004 16711422
0.15705524 -0.064274929 0.98473322 16711422
0.16442961 -0.0660142 0.98249996 16711422
0.1751155 -0.066741653 0.98189467 16711422
0.18462558 -0.066604204 0.98273671 16711422
0.19481172 -0.065633282 0.98442107 16711422
0.20376192 -0.062841482 0.98644447 16711422
0.2117143 -0.060220953 0.98800004 16711422
0.14639851 -0.053524345 0.98399991 16711422
0.15391977 -0.058392383 0.98100001 16711422
0.16146666 -0.059733335 0.98000002 16711422
0.20653918 -0.056308705 0.98099995 16711422
0.21523821 -0.053718485 0.98259991 16711422
0.2244105 -0.052462697 0.98658335 16711422
0.099740952 -0.041401904 0.98800004 16579836
0.10542168 -0.042835906 0.98430771 16579836
0.11215176 -0.044862855 0.98133332 16579836
0.12648028 -0.04354817 0.98478568 16645629
0.13464902 -0.044458944 0.98326313 16645886
0.1435909 -0.047795974 0.98188901 16711422
0.21699999 -0.048066668 0.98000002 16711422
0.22501004 -0.045344941 0.98254555 16711422
0.23397546 -0.044395905 0.98545009 16711422
0.24051811 -0.042280003 0.98650002 16711422
0.077568576 -0.030558098 0.98725009 16513787
0.085181832 -0.032341685 0.98538458 16579323
0.095317192 -0.035331182 0.9829129 16579579
0.10391118 -0.03853 0.98075002 16579836
0.12706287 -0.039240003 0.98100007 16645629
0.13253334 -0.0392 0.98000002 16645886
0.22773334 -0.0392 0.98000002 16711422
0.23663659 -0.036150478 0.98042846 16711422
0.24461184 -0.034637794 0.98426306 16711422
0.25123429 -0.032933332 0.98800004 16711422
0.076469801 -0.024058713 0.98488224 16513787
0.08391992 -0.026255421 0.9811427 16513787
0.091466665 -0.029866667 0.98000002 16579579
0.23893334 -0.029866667 0.98000002 16711422
0.24528407 -0.025695954 0.98112482 16711422
0.25382936 -0.023669207 0.98613334 16711422
0.067800716 -0.013141429 0.98537499 16513786
0.074670874 -0.015124764 0.98216653 16513786
0.080266662 -0.018666666 0.98000002 16513787
0.24686666 -0.018199999 0.98000002 16711422
0.25493428 -0.015146747 0.9835 16711422
0.26266587 -0.012611973 0.98600012 16711422
0.06454365 -0.0054636518 0.9835 16513786
0.070933335 -0.009333333 0.98000002 16513786
0.25683525 -0.0056057149 0.9806428 16711422
0.26311508 -0.0056238733 0.98386669 16711422
0.058239829 0.0066592214 0.98636359 16513787
0.062693022 0.0037392594 0.98255551 16513786
0.259 0.0014000001 0.98000002 16711422
0.26568735 0.0041862139 0.98228556 16711422
0.27166098 0.0059536509 0.98700011 16711422
0.05751292 0.015316084 0.98466665 16513787
0.0616 0.012133334 0.98000002 16513787
0.26811349 0.014945335 0.98089999 16711422
0.27349654 0.015783811 0.98458338 16711422
0.056210142 0.025125455 0.98377275 15329514
0.26786664 0.024733335 0.98000002 16711422
0.27438581 0.025197539 0.98299998 16711422
0.28165841 0.02697397 0.98800009 16711422
0.055127893 0.035327621 0.98357147 14935009
0.26879999 0.032666668 0.98000002 16711422
0.16806573 -0.081659049 0.99700004 16711422
0.17471239 -0.081659049 0.99700004 16711422
0.18610668 -0.081659049 0.99700004 16711422
0.15761904 -0.072530001 0.99550003 16711422
0.16554025 -0.076388329 0.99325013 16711422
0.1752746 -0.07778164 0.99250019 16711422
0.18559475 -0.076404542 0.9932856 16711422
0.1943761 -0.074722447 0.99450004 16711422
0.20440213 -0.071436197 0.99566674 16711422
0.21364287 -0.070264764 0.99700004 16711422
0.14782763 -0.061596185 0.99500006 16711422
0.15349577 -0.065401778 0.99314296 16711422
0.1963124 -0.069841914 0.99100006 16711422
0.20568497 -0.066734672 0.99250001 16711422
0.21520764 -0.064747877 0.99387985 16711422
0.22443329 -0.063441575 0.99505883 16711422
0.23168381 -0.060769524 0.99700004 16711422
0.13699904 -0.051671904 0.99550003 16711422
0.14290859 -0.055366676 0.9937501 16711422
0.21707621 -0.058516197 0.99100006 16711422
0.22575925 -0.057194866 0.99100012 16711422
0.23440461 -0.054615244 0.99357146 16711422
0.24045333 -0.051120002 0.99400002 16711422
0.088305712 -0.041779049 0.99700004 16579579
0.095137149 -0.043074768 0.99400014 16579580
0.10394937 -0.04685095 0.99375004 16579836
0.12590666 -0.047333334 0.99400002 16645629
0.13604382 -0.04912762 0.99200004 16711422
0.23831192 -0.047662385 0.99100006 16711422
0.24435563 -0.045462422 0.99446166 16711422
0.076966099 -0.033851814 0.99280006 16513787
0.085078873 -0.037437338 0.9926002 16579323
0.092089996 -0.039198097 0.99175012 16579579
0.24777906 -0.03908889 0.99300003 16711422
0.25487551 -0.034997802 0.99515396 16711422
0.26016954 -0.030384762 0.99700004 16711422
0.067664132 -0.021501586 0.99600005 16513786
0.071885377 -0.024594113 0.99318194 16513786
0.25800535 -0.026821336 0.99160004 16711422
0.26263872 -0.023274286 0.99340004 16711422
0.058870479 -0.011394287 0.99700004 16513787
0.064435139 -0.01552019 0.99354994 16513786
0.26628667 -0.015906859 0.99430019 16711422
0.057486415 -0.0053378358 0.99400014 16513787
0.061033022 -0.0088088894 0.99100006 16513787
0.26831239 -0.0075580953 0.99200004 16711422
0.27192444 -0.0041117463 0.99600005 16711422
0.054765593 0.0046725087 0.99380022 16513787
0.2761116 0.0047304765 0.99400014 16711422
0.28105906 0.0085457144 0.99700004 16711422
0.04937524 0.016141905 0.99700004 16184821
0.052459054 0.014650954 0.99250019 16514042
0.27802554 0.014352763 0.99160016 16711422
0.28205833 0.015404762 0.99550003 16711422
0.048934922 0.024942225 0.9945001 15197928
0.051692866 0.023839049 0.99137509 15527149
0.28503433 0.024956018 0.99400014 16580091
0.049338095 0.034159999 0.99625003 14277081
0.05101715 0.034958102 0.99200004 14408667
0.15936001 -0.080640003 1.008 16711422
0.1649887 -0.08352273 1.0047145 16711422
0.17460509 -0.084968463 1.0036668 16711422
0.18496083 -0.08348082 1.0025716 16711422
0.19598387 -0.083649792 1.0041336 16711422
0.20485905 -0.081911594 1.0059168 16711422
0.21170032 -0.081226677 1.0073333 16711422
0.1552579 -0.073808759 1.0038 16711422
0.16285715 -0.07904762 1 16711422
0.19619048 -0.07904762 1 16711422
0.20506546 -0.076355785 1.0021429 16711422
0.21477242 -0.075486004 1.0045003 16711422
0.22353598 -0.073090993 1.0056924 16711422
0.2304 -0.071040004 1.008 16711422
0.14607537 -0.065395378 1.0034288 16711422
0.15047619 -0.066666663 1 16711422
0.22669601 -0.068313904 1.0017999 16711422
0.23486924 -0.064630367 1.0048825 16711422
0.24456 -0.062771797 1.0078001 16711422
0.25152001 -0.063359998 1.008 16711422
0.13664554 -0.05493819 1.0040001 16711422
0.14186922 -0.058528893 1.0020001 16711422
0.23809524 -0.059047617 1 16711422
0.24513145 -0.055718388 1.0034503 16711422
0.25334927 -0.05496208 1.0076364 16711422
0.078079998 -0.040960003 1.0080001 16513787
0.084889844 -0.044308469 1.0040556 16579323
0.095145248 -0.047815241 1.0040834 16579579
0.10422795 -0.049573332 1.001 16579836
0.13181905 -0.049672388 1.003 16645886
0.24825397 -0.046984129 1 16711422
0.25424135 -0.045313183 1.0043685 16711422
0.26168075 -0.041823238 1.0072 16711422
0.067142867 -0.031791024 1.0071429 16513786
0.0736681 -0.034604765 1.0045834 16513787
0.081904761 -0.039999999 1 16579579
0.25765905 -0.038169526 1.0020001 16711422
0.26461917 -0.034096431 1.0048751 16711422
0.27118096 -0.031339683 1.0073333 16711422
0.058530472 -0.022069525 1.0075001 16513787
0.064738326 -0.025135331 1.0039049 16513786
0.070581906 -0.027661905 1.0015 16513786
0.26723513 -0.02585566 1.0013335 16711422
0.2740669 -0.025045713 1.0066251 16711421
0.057382382 -0.014826349 1.00425 16513787
0.061996192 -0.019076191 1.0015 16513787
0.26857144 -0.019047618 1 16711422
0.27516177 -0.015194287 1.0044119 16711422
0.2816 -0.012800001 1.0080001 16711422
0.04992 -0.0019200001 1.008 16513787
0.053667139 -0.0055752378 1.0033334 16513786
0.27690357 -0.0064125177 1.0025716 16711422
0.28469491 -0.0042172703 1.006267 16645370
0.047552574 0.005175523 1.0067002 16382458
0.052038919 0.0029956463 1.0012858 16513787
0.27809525 0 1 16711422
0.28558338 0.0041302857 1.0040803 16711418
0.29225573 0.0067066671 1.0061251 14999519
0.045379337 0.015317716 1.0053003 15592944
0.28725219 0.014517903 1.0027001 16711419
0.29201609 0.014899895 1.0056667 15461609
0.045303367 0.024508571 1.0050669 14868964
0.28755939 0.021631112 1.0020001 16711418
0.2903924 0.021970477 1.003 16121588
0.16853143 -0.091045722 1.0170001 16711422
0.17369716 -0.091368578 1.0170002 16711422
0.18273716 -0.091045722 1.0170001 16711422
0.15856229 -0.082763433 1.0152001 16711422
0.16513334 -0.087235242 1.0140002 16711422
0.17586516 -0.088512003 1.0146 16711422
0.18518808 -0.088111185 1.0156364 16711422
0.19518974 -0.088125721 1.0146 16711422
0.20486346 -0.087277725 1.0137 16711422
0.21524256 -0.083269216 1.0140001 16711422
0.22489144 -0.082155921 1.0165716 16711422
0.23052001 -0.081360005 1.0170001 16711422
0.15558171 -0.076827429 1.0134001 16711422
0.22603494 -0.077345401 1.0123335 16711422
0.23444033 -0.075320952 1.0153334 16711422
0.24069002 -0.075064287 1.0170001 16711420
0.23782572 -0.068362862 1.011 16711422
0.24541833 -0.067346297 1.0140002 16711422
0.25251621 -0.062971435 1.0120001 16711422
0.079422861 -0.050365716 1.0170001 16579579
0.085862868 -0.051035717 1.0158751 16579579
0.093774289 -0.051348574 1.0125 16579579
0.1049943 -0.052497149 1.0145 16579836
0.11509286 -0.050291434 1.0155001 16579837
0.12766072 -0.051743574 1.0155001 16645629
0.13364899 -0.055389389 1.0127144 16645886
0.25534695 -0.055911843 1.0122858 16711422
0.26151431 -0.050365716 1.0170001 16711422
0.069737151 -0.040680002 1.0170001 16513787
0.075913534 -0.044082291 1.0150001 16513787
0.082508571 -0.047768574 1.0132501 16579579
0.11974858 -0.048285719 1.0140001 16645629
0.12264572 -0.048285719 1.0140001 16645629
0.25939143 -0.047251433 1.0125 16711422
0.26520893 -0.044454604 1.0146667 16711422
0.065281235 -0.034920417 1.0144286 16513786
0.072748572 -0.038061429 1.0117501 16513787
0.26793906 -0.037910476 1.0120001 16711422
0.27435431 -0.03434794 1.0143334 16711422
0.058245718 -0.025859999 1.015125 16513787
0.061622858 -0.028885717 1.011 16513787
0.27812573 -0.02897143 1.0140001 16711422
0.28162384 -0.023198098 1.0150001 16711420
0.053473346 -0.015301431 1.0147501 16513531
0.27922857 -0.019257143 1.011 16711422
0.2852037 -0.015287794 1.0148182 16579575
0.29057145 -0.011622857 1.0170001 15657702
0.047289524 -0.004732064 1.0156667 16579579
0.050784763 -0.0073952386 1.0125002 16513530
0.28721619 -0.0080323815 1.0120001 16514809
0.29137716 -0.0082185715 1.01475 15459557
0.044035431 0.0038640003 1.0140001 16053237
0.042617146 0.011622857 1.0170001 15395308
0.038704764 0.025803812 1.0160002 13488077
0.042007145 0.026073575 1.0140001 14276315
0.16745143 -0.092488579 1.0222501 16711422
0.17686287 -0.093805715 1.026 16711422
0.18637651 -0.093625404 1.024 16711422
0.19439904 -0.0919981 1.024 16711422
0.20389715 -0.091851436 1.026 16711422
0.15675543 -0.084228575 1.0236 16711422
0.16235185 -0.088836744 1.0234287 16711422
0.1933143 -0.089371435 1.0200001 16711422
0.21726286 -0.08671429 1.023 16711422
0.22390205 -0.086053059 1.0234287 16711422
0.2330841 -0.083549395 1.0234287 16711422
0.15432458 -0.076771438 1.0230001 16711422
0.2370286 -0.079657152 1.0200002 16711422
0.24406354 -0.074646987 1.0223334 16711422
0.25014856 -0.072308578 1.026 16711422
0.09771429 -0.060582858 1.026 16579836
0.11725714 -0.062537141 1.026 16645629
0.12442287 -0.061234288 1.026 16645629
0.13566077 -0.061971948 1.0254545 16645886
0.14252383 -0.063779682 1.0250001 16711422
0.076268576 -0.051497962 1.023 16579323
0.086817153 -0.054818779 1.0225716 16579579
0.095516965 -0.056533713 1.0234001 16579836
0.10473715 -0.055537142 1.023 16579836
0.11540975 -0.055069581 1.0238825 16579836
0.12402686 -0.055247705 1.0230001 16645629
0.13203542 -0.057645716 1.0224001 16645629
0.26437935 -0.054073848 1.0223078 16645882
0.067418776 -0.042348579 1.0238572 16513786
0.072720639 -0.046752386 1.0226666 16513787
0.26799047 -0.046721905 1.0220001 16711422
0.27448055 -0.043470133 1.0246364 16514286
0.057414696 -0.033169799 1.0242858 16513786
0.062604092 -0.036728986 1.0225714 16513786
0.27698287 -0.03797143 1.0222501 16711161
0.28219888 -0.036349714 1.026 15920359
0.053969231 -0.024887472 1.0232308 16513787
0.28268573 -0.025257144 1.0200001 16711422
0.047662225 -0.01452 1.0236667 16513787
0.051350862 -0.017896002 1.0212001 16513531
0.28847241 -0.016207621 1.0210001 16579574
0.29033715 -0.017537143 1.023 16183013
0.045093063 -0.0066800001 1.0230001 16579835
0.042293064 0.0055681635 1.0225714 15724015
0.038971428 0.019485714 1.023 14079447
0.040848006 0.015561144 1.0212001 14934242
0.037725717 0.025694286 1.0245001 13224909
0.040800005 0.02137143 1.0200001 14473437
0.18796991 -0.1014899 1.0366 16711422
0.19513831 -0.10052343 1.0348002 16711422
0.20128001 -0.10064001 1.036 16711422
0.15736976 -0.092008099 1.036 16711422
0.16406716 -0.095466554 1.0346875 16711422
0.17610666 -0.096310228 1.0345 16711422
0.1839661 -0.097596191 1.033 16711422
0.19547461 -0.096673183 1.0322502 16711422
0.204906 -0.096111983 1.0357859 16711422
0.21589218 -0.092832834 1.0369231 16711422
0.22371684 -0.09212064 1.0363333 16711421
0.23087999 -0.090773337 1.036 16711420
0.1540345 -0.08469037 1.0353334 16711422
0.22846095 -0.088628575 1.034 16711422
0.23523366 -0.085833654 1.0320001 16645886
0.10617524 -0.071856432 1.037125 16579836
0.11420762 -0.071870953 1.0337501 16645629
0.1286381 -0.071245715 1.039 16711422
0.13441639 -0.071163431 1.0378001 16711422
0.14571428 -0.073946767 1.0366 16711422
0.1518857 -0.076439768 1.03225 16711422
0.088311754 -0.061951112 1.0380001 16579580
0.09501905 -0.064424962 1.0347369 16579836
0.10462645 -0.064859644 1.0341539 16579836
0.11479682 -0.064895093 1.0312223 16580093
0.12567079 -0.066004016 1.0334737 16645629
0.13460965 -0.066981472 1.0322001 16711422
0.14361145 -0.068274289 1.0300001 16711422
0.068666674 -0.051009528 1.0300001 16579323
0.074745864 -0.053951841 1.0325716 16513787
0.084461741 -0.057242062 1.0332501 16579579
0.10594287 -0.058530163 1.0300002 16579836
0.1137905 -0.058857154 1.0300001 16580092
0.27421525 -0.052157719 1.0372001 16184811
0.057823494 -0.0427127 1.0350001 16514043
0.064248443 -0.045172386 1.0310714 16513786
0.070628576 -0.049047623 1.0300001 16579323
0.27540731 -0.048582222 1.0340002 16249072
0.28153336 -0.041200001 1.0300001 15790039
0.055237517 -0.036577731 1.0357692 16514042
0.060819052 -0.038257144 1.0300001 16513786
0.28565311 -0.034746032 1.0326668 15591392
0.29008001 -0.032559998 1.036 14669271
0.048346397 -0.024176056 1.033 16579836
0.051853716 -0.027892191 1.0312002 16513787
0.28727236 -0.028530475 1.033 16513788
0.29219541 -0.025679622 1.0372 15590368
0.045234017 -0.015732791 1.0325716 16449020
0.042152591 -0.0063337567 1.0320001 16317430
0.038883179 0.005600635 1.0380001 14408930
0.04126 0.0029428571 1.0315001 15789805
0.16656438 -0.10232654 1.0445715 16711422
0.17444846 -0.1021679 1.0458572 16711422
0.18353906 -0.10256844 1.044143 16711422
0.15565181 -0.095342673 1.0450001 16711422
0.16422795 -0.099333338 1.0430001 16711422
0.17416286 -0.099238098 1.0420001 16711422
0.20840001 -0.099238098 1.0420001 16711422
0.21378723 -0.097536877 1.0420001 16711422
0.14707008 -0.084491439 1.0454288 16711422
0.15144667 -0.087889999 1.0427501 16711422
0.098387152 -0.072549522 1.0435001 16579836
0.10330477 -0.073506676 1.0430001 16580092
0.11908572 -0.071451433 1.0420001 16645629
0.1243901 -0.071932964 1.0432001 16645629
0.13658582 -0.074826464 1.0460001 16711422
0.14335382 -0.078262851 1.0435001 16711422
0.079847626 -0.061881911 1.0480001 16579579
0.085977577 -0.063877679 1.0443333 16579579
0.093154296 -0.068872765 1.0450001 16579836
0.07727506 -0.058157343 1.0456002 16579323
0.081375241 -0.059542861 1.0420001 16579579
0.06429588 -0.048391115 1.0440001 16513786
0.051603809 -0.032748573 1.0420001 16579837
0.29176003 -0.023817144 1.0420001 16711409
0.037710477 0.0039695241 1.0420001 13882586
0.15616889 -0.10187937 1.0556668 16711422
0.1630424 -0.10459858 1.0535001 16711422
0.18535239 -0.10620191 1.052 16711422
0.13905144 -0.090685725 1.0580001 16711422
0.14635769 -0.092985801 1.0559233 16711422
0.15213248 -0.096145608 1.054 16711422
0.13618198 -0.083188333 1.0566003 16711422
0.14227065 -0.085432224 1.0532502 16711422
0.087914929 -0.072816834 1.0570002 16579837
0.09352722 -0.07416518 1.0543573 16579836
0.10019048 -0.076144762 1.052 16579836
0.11655238 -0.07636191 1.0550001 16645629
0.12542914 -0.076185532 1.0553001 16645629
0.13330774 -0.07713376 1.0533334 16711422
0.077067941 -0.062661596 1.0555003 16579579
0.083748572 -0.066680193 1.0544001 16514043
0.066294603 -0.053128045 1.0546669 16513787
0.072444767 -0.056682549 1.0565002 16513787
0.13731429 -0.10273144 1.0680001 15990004
0.14649214 -0.10263983 1.0641819 16711422
0.15388191 -0.10427524 1.0630001 16711422
0.12816 -0.092560008 1.0680001 16711422
0.13516301 -0.094464317 1.0659525 16711422
0.14347404 -0.097052127 1.0630715 16711422
0.10476571 -0.081371427 1.0680001 16645629
0.11697143 -0.081371427 1.0680001 16645629
0.12534484 -0.084516339 1.0655601 16645629
0.13349487 -0.086975805 1.0619 16711422
0.08491905 -0.073125407 1.0615001 16645624
0.10619429 -0.078341231 1.0662858 16580092
0.11690414 -0.078052074 1.0643333 16645629
0.12350857 -0.078965724 1.0630001 16645630
0.080838099 -0.068712391 1.0610001 16580348
0.13346666 -0.10164001 1.0780001 15264233
0.12628867 -0.094719373 1.0732223 16645882
0.13284571 -0.09810286 1.0730001 16711417
0.10855746 -0.083980948 1.0753334 16645629
0.11486746 -0.085249417 1.0746471 16645629
0.12280802 -0.089352004 1.0710001 16645886
0.11243429 -0.07870429 1.0732499 16645629
