# .PCD v0.7 - Point Cloud Data file format
VERSION 0.7
FIELDS x y z rgba
SIZE 4 4 4 4
TYPE F F F U
COUNT 1 1 1 1
WIDTH 274
HEIGHT 1
VIEWPOINT 0 0 0 1 0 0 0
POINTS 274
DATA ascii
-0.15235953 -0.011983334 0.71900004 13748913
-0.16443199 -0.0054682619 0.71262789 9839144
-0.15518682 -0.0052225739 0.71412963 11569054
-0.14519317 -0.0045111845 0.71613938 11843012
-0.13526145 -0.0044286218 0.71786833 11645124
-0.12600172 -0.0035859437 0.71824133 10394553
-0.17000002 0.0020400002 0.71400005 5852472
-0.16440809 0.0048230304 0.71303648 5052955
-0.15505375 0.0046902336 0.71438998 5784394
-0.14506428 0.004477968 0.71523345 7170675
-0.13520686 0.0038776197 0.71791661 7368052
-0.12653856 0.0013687217 0.71799999 8157566
-0.16365811 0.010956191 0.71900004 6248532
-0.15287513 0.011338775 0.71842867 5921369
-0.14704534 0.012733524 0.71880001 6183776
-0.16114286 -0.010971429 0.72000003 10689608
-0.15455206 -0.011974718 0.7203638 13288876
-0.14528343 -0.012395795 0.72300005 13947834
-0.13469037 -0.01265085 0.72382611 13750206
-0.12554304 -0.01239743 0.72710001 14212052
-0.11464288 -0.011891158 0.72828585 15263464
-0.10619607 -0.012204764 0.72699994 14276034
-0.15405715 -0.0096000005 0.72000003 15001063
-0.14430478 -0.009142857 0.72000009 15262436
-0.13498111 -0.0089209517 0.72050017 15261668
-0.12397869 -0.0075358478 0.72160012 14672103
-0.11489927 -0.005438684 0.72299999 12040396
-0.10504653 -0.0055294065 0.72567344 11118012
-0.098928854 -0.0051472113 0.72785717 11052719
-0.14194286 0.0095999995 0.72000003 6446950
-0.13432236 0.0089690834 0.72015399 6644072
-0.12430036 0.0063223145 0.72185701 6907245
-0.11498391 0.0046995385 0.72396779 7302003
-0.10627031 0.0039482866 0.72695011 8025468
-0.16213362 0.015963525 0.7253499 5447458
-0.15556191 0.015520722 0.72272974 4132121
-0.14395846 0.01531007 0.72128558 5920344
-0.13516812 0.015230737 0.72529435 6117984
-0.12505378 0.014225784 0.72630244 6381413
-0.11611737 0.012475663 0.72766668 6841448
-0.10800114 0.011660953 0.7288 6973035
-0.16304618 0.020814287 0.72850001 5508365
-0.1572922 0.021083429 0.72820008 4851207
-0.14085715 0.020714285 0.72500002 6314332
-0.13716285 0.021475809 0.7274 6182744
-0.12481552 -0.014134151 0.73157144 13552296
-0.11701429 -0.013698096 0.73133337 15395006
-0.096509948 -0.0025874833 0.73128575 10395816
-0.10231651 0.0063892864 0.73166674 7697013
-0.095868453 0.0049359477 0.73265129 7367795
-0.1308838 0.018797144 0.73100001 6117728
-0.12455914 0.019186879 0.73111111 6249824
-0.11472044 0.017042669 0.73322862 6775653
-0.10582093 0.014824167 0.73253143 6903646
-0.099069223 0.011683176 0.73600006 6315116
-0.17115051 0.02835143 0.73500001 6568255
-0.16491114 0.026213702 0.73283345 5638931
-0.1334208 0.025392435 0.73438263 4793393
-0.124827 0.025072601 0.73505872 6042170
-0.11563949 0.024748063 0.73775607 7091001
-0.10855342 0.023732815 0.73663634 7150113
-0.17182478 0.033607434 0.73820001 6360861
-0.16581938 0.033810724 0.73650002 5775393
-0.13161239 0.030967621 0.73900002 4325895
-0.12457428 0.030967621 0.73900002 4587786
-0.11917841 0.031436831 0.73900002 4653322
-0.13638668 0.029680001 0.74200004 3932692
-0.11346667 0.028190475 0.74000001 6556428
-0.10994286 0.026780954 0.74000001 7015437
-0.17438844 0.038075123 0.74206245 6293780
-0.16773334 0.038761906 0.74000001 5980478
-0.13398147 0.035550646 0.74308574 4850953
-0.12499782 0.035700016 0.74152273 4718851
-0.11606631 0.034785692 0.74311435 5308676
-0.10994286 0.031714287 0.74000001 5964038
-0.17391875 0.041005082 0.74233341 5637390
-0.16773333 0.040876191 0.74000001 6120539
-0.13344513 0.045004975 0.74658072 7431521
-0.12546462 0.045044158 0.74595338 6506565
-0.11920508 0.041793019 0.74800003 6161418
-0.14427967 0.036870655 0.75504559 9405053
-0.13903333 0.037982859 0.75250006 6369069
-0.11343619 0.038016874 0.75114292 6096898
-0.14520596 0.044566855 0.7547552 7894139
-0.13843906 0.044837624 0.75025004 8222328
-0.12238096 0.047619052 0.75000012 7104873
-0.11520274 0.04505552 0.75265962 8022889
-0.10896 0.045599997 0.75600004 9671308
-0.14207429 0.052889373 0.75725001 6116958
-0.13482431 0.05469529 0.754143 6051676
-0.1247711 0.054929696 0.75351131 6183261
-0.11690938 0.054055411 0.75578797 7433843
-0.13283047 0.06064 0.75800008 6709861
-0.12473454 0.061121389 0.75745457 7104110
-0.11935493 0.06112127 0.75800008 7301745
-0.11023619 0.048592381 0.7615 9539726
-0.10749906 0.048665717 0.7626667 10196372
-0.1506743 0.055588569 0.76800001 10720904
-0.14597347 0.055971239 0.76253343 7432811
-0.11216223 0.055840325 0.7614584 8815238
-0.10672756 0.055433922 0.76513338 10262678
-0.14426227 0.065499738 0.764139 9406093
-0.13514811 0.065691851 0.76184458 8288126
-0.12488783 0.066462025 0.76118934 8420737
-0.11486831 0.065306544 0.76297837 8419969
-0.1081094 0.064466313 0.76700002 9670549
-0.15214626 0.075686716 0.76726311 9736599
-0.14487888 0.074804723 0.76392323 9210515
-0.13531178 0.075166158 0.76277792 8420999
-0.12507366 0.074900635 0.763524 8750218
-0.11571421 0.074493781 0.76562166 9341838
-0.10971429 0.070948571 0.76800001 9340816
-0.1525459 0.082462475 0.76760006 6380901
-0.14465688 0.083451614 0.7668708 6117979
-0.13440977 0.084154077 0.76657885 6249821
-0.12516727 0.083672427 0.7662701 6249310
-0.11814425 0.083312064 0.76733333 6578027
-0.15271658 0.058262099 0.77240008 10131607
-0.10266667 0.058666669 0.7700001 10917777
-0.16062239 0.066400476 0.77900004 10723237
-0.15513211 0.065100446 0.77443254 10788770
-0.14979428 0.06388095 0.77100003 10063248
-0.10381308 0.064921789 0.77053356 10525342
-0.099992387 0.06499505 0.77200001 10131601
-0.16300794 0.076330692 0.77521747 10131100
-0.1565924 0.073920913 0.77082628 10460066
-0.11126985 0.076911747 0.77033341 9998995
-0.10453691 0.075097144 0.77302045 10196122
-0.098420009 0.077699997 0.77700001 10525343
-0.1706381 0.083093338 0.77900004 9144715
-0.16471335 0.084990092 0.77460527 7828343
-0.15608396 0.086091302 0.77055192 6578020
-0.14581235 0.088504389 0.7701335 6052954
-0.13548334 0.08928334 0.77000004 5850696
-0.1243 0.08928334 0.77000004 6052957
-0.11351795 0.085805252 0.77129734 6907500
-0.10500409 0.08514341 0.77525014 9144464
-0.098178022 0.08374875 0.77881831 10393752
-0.16418186 0.093918853 0.77778584 6247767
-0.15503684 0.095306426 0.77634221 5059126
-0.14509042 0.095158868 0.77402568 4460055
-0.13522492 0.09481778 0.77292514 5056307
-0.125092 0.095121108 0.77348834 4855328
-0.11526374 0.094726592 0.7750271 5982539
-0.10542036 0.093223654 0.77727586 6710121
-0.1540689 0.10139366 0.77900004 3147030
-0.145154 0.10250536 0.77880019 2493984
-0.13490489 0.1030313 0.7782858 2560035
-0.12633118 0.10243764 0.77800012 2822941
-0.16436055 0.06660258 0.78317648 10459294
-0.17291446 0.075282305 0.78434795 9276045
-0.16744022 0.073508807 0.78200012 10328734
-0.18019049 0.087091438 0.78833342 8881546
-0.17517668 0.085239209 0.78417248 9013640
-0.097065143 0.088420585 0.78279996 10065557
-0.18042694 0.095900148 0.7884286 7566195
-0.17474987 0.09462022 0.7836774 6906985
-0.16676132 0.097791657 0.78061545 6051414
-0.11314517 0.099747054 0.78160006 5852227
-0.1044112 0.097905241 0.78100002 6644070
-0.096887633 0.095106855 0.78570962 9408143
-0.18094401 0.10189372 0.78900003 6446431
-0.17425025 0.10332224 0.78651726 5920084
-0.16504307 0.10543381 0.78494871 4269615
-0.15522984 0.10575312 0.78264534 4205101
-0.14492735 0.10692572 0.78171432 4076080
-0.13468954 0.10789938 0.78133333 4336943
-0.12402082 0.1063162 0.78230774 4332585
-0.11497772 0.10527846 0.78395253 5121329
-0.10509847 0.10449787 0.78613508 6578016
-0.096558571 0.10144286 0.78900003 8684428
-0.16332 0.1128225 0.78843737 2038055
-0.15475185 0.11369395 0.78796422 3224637
-0.14496675 0.1138709 0.78657556 3947584
-0.13494863 0.11382551 0.78721213 3156528
-0.12602074 0.11277989 0.78711116 3684159
-0.1154849 0.11098994 0.78742862 5850171
-0.18230666 0.088139996 0.79100001 8814972
-0.19000001 0.09804 0.79800004 7234407
-0.18472297 0.09492977 0.79307997 8026230
-0.18522102 0.10547508 0.7945385 6709602
-0.17594111 0.10887952 0.79116666 5653828
-0.10340839 0.10883619 0.79139996 6774883
-0.096576296 0.10562371 0.79160017 8091768
-0.18311179 0.11422954 0.79718202 5854545
-0.1748084 0.11554705 0.79391897 5194824
-0.16572972 0.11711775 0.79166675 2695990
-0.15518667 0.11834182 0.79099995 2758694
-0.14413778 0.11902668 0.79100001 3686722
-0.13503501 0.11846166 0.79099995 2434354
-0.12411305 0.11703447 0.79169583 3684930
-0.11492623 0.11639866 0.7930001 4273214
-0.10551625 0.11433732 0.79518175 6511710
-0.09831325 0.1126362 0.79518193 7301993
-0.18164 0.12008001 0.79800004 5055826
-0.17452537 0.12266362 0.79766673 4276284
-0.16423105 0.12386505 0.79588896 4606276
-0.15490502 0.12507036 0.79484224 5000015
-0.14505725 0.12470999 0.79452509 3946045
-0.13466577 0.12480551 0.79417491 4209733
-0.12490357 0.12469356 0.79637158 4605263
-0.1161835 0.12371358 0.79691684 5591891
-0.10867999 0.12008001 0.79800004 6047559
-0.15352002 0.13072 0.79800004 5065556
-0.14896001 0.13072 0.79800004 5396576
-0.1914781 0.10985143 0.801 6841447
-0.1939418 0.11526892 0.80533338 6314848
-0.18792556 0.11613451 0.80061549 6117721
-0.10179048 0.11824763 0.80000001 6644326
-0.098285705 0.11809525 0.80000001 7367023
-0.19286333 0.12305378 0.80753845 5986393
-0.18532079 0.12514901 0.80406439 5457481
-0.17498808 0.12704563 0.80105269 3748649
-0.16659467 0.12864192 0.8002001 3355179
-0.13866667 0.12952381 0.80000001 4740446
-0.12525715 0.12952381 0.80000001 4803156
-0.11341792 0.12756066 0.80106676 5721164
-0.10489622 0.12470058 0.8026154 6576735
-0.097994916 0.12399969 0.80283344 7498863
-0.18338837 0.13288423 0.80755544 4604494
-0.17489028 0.13453357 0.80648494 4210752
-0.16508375 0.13566965 0.80440003 4737617
-0.15538177 0.1356051 0.80245709 4671050
-0.14489353 0.13523722 0.80200005 4341047
-0.13498092 0.1355757 0.80317962 5263442
-0.12517516 0.13498548 0.80329728 3680291
-0.11535709 0.13398491 0.80573344 5194823
-0.10644742 0.13139513 0.80733341 6577758
-0.17333524 0.14063048 0.80800003 4208454
-0.16469286 0.14268908 0.80712491 4470089
-0.15407641 0.14297548 0.80711102 5261131
-0.14527008 0.1435343 0.80686951 5591122
-0.1349283 0.14310081 0.80663633 5328975
-0.12553053 0.14218466 0.80776459 4469536
-0.20315182 0.11757105 0.81540006 5788244
-0.19952001 0.11677334 0.81200004 5657689
-0.20143047 0.12233119 0.81425005 5591623
-0.19639407 0.12698849 0.81130445 5723477
-0.10053334 0.12992001 0.81200004 7103854
-0.098213337 0.12992001 0.81200004 7499631
-0.20025715 0.13583334 0.81500006 3750979
-0.19469412 0.13539791 0.81423342 5591633
-0.18614858 0.13695091 0.81138909 4600645
-0.17897144 0.13885716 0.81000006 4078409
-0.11237906 0.13825668 0.81100005 5652551
-0.1048302 0.13576545 0.81337041 6840677
-0.09872134 0.13525829 0.81620008 7434095
-0.19343735 0.14328815 0.81766689 5526088
-0.18506445 0.14502817 0.81468582 5122601
-0.1755562 0.1455173 0.81178576 4789028
-0.16509447 0.14692459 0.81094128 5051426
-0.15559822 0.14736433 0.81040019 5250342
-0.14463933 0.14786704 0.81018192 5316147
-0.13516574 0.14768 0.81100017 5320501
-0.12416035 0.14645213 0.81204557 5257529
-0.11512376 0.14506313 0.81515008 5519423
-0.1048176 0.14379309 0.8184287 6578526
-0.099758737 0.14184573 0.81833339 6577509
-0.18287317 0.15250239 0.81766677 5591884
-0.17464393 0.15415266 0.81590617 5391938
-0.16496134 0.15469316 0.81525642 5783352
-0.15506709 0.15455371 0.81477785 5715240
-0.14490736 0.15447243 0.81448662 5647912
-0.13503118 0.15447371 0.81553668 5515559
-0.12550631 0.15427767 0.81631267 5449000
-0.11912 0.15182191 0.81750005 5179925
-0.1287 0.16068001 0.81900007 4741462
-0.20016763 0.14230667 0.82100004 4800322
-0.19626328 0.14632826 0.82211113 4736322
-0.11103048 0.14699811 0.82100004 6512473
-0.10594811 0.1462162 0.82100004 6644064
-0.12206151 0.15805526 0.82157153 6052692
-0.11427844 0.15540777 0.82360601 6050640
-0.10779773 0.15322115 0.82499999 6050643
