# .PCD v0.7 - Point Cloud Data file format
VERSION 0.7
FIELDS x y z rgba
SIZE 4 4 4 4
TYPE F F F U
COUNT 1 1 1 1
WIDTH 289
HEIGHT 1
VIEWPOINT 0 0 0 1 0 0 0
POINTS 289
DATA ascii
-0.1230034 -0.053311843 0.74778587 11248574
-0.11537661 -0.052703131 0.74780959 11908565
-0.10537636 -0.052754372 0.74668187 14278633
-0.094989695 -0.053504106 0.7466206 15658221
-0.086352989 -0.053326149 0.74654549 14340543
-0.12232599 -0.048848983 0.74800009 8685464
-0.11426248 -0.046558961 0.74757552 8880782
-0.10502683 -0.045410808 0.74510199 9077913
-0.094870098 -0.045309931 0.74338782 10196908
-0.086372368 -0.04531737 0.74537855 12105676
-0.1048981 -0.039715238 0.74800009 7959418
-0.095029235 -0.038108662 0.74704343 8552075
-0.086587824 -0.038598735 0.74686664 8551813
-0.15281382 -0.061965562 0.75508344 10898769
-0.14530358 -0.063034058 0.75693768 13404811
-0.1352149 -0.062050831 0.75518197 15065319
-0.12509027 -0.060890261 0.75284624 14934251
-0.1147841 -0.060981233 0.75328577 14935007
-0.10828857 -0.06024 0.75300002 15987144
-0.15308551 -0.054807056 0.75503719 5839653
-0.14495592 -0.054537456 0.75346917 7425637
-0.13468133 -0.054446172 0.75220412 10394290
-0.12627353 -0.055303097 0.75059998 12434636
-0.11521525 -0.056894477 0.75048 14736870
-0.10437354 -0.057341967 0.75063157 15526641
-0.095279686 -0.057763815 0.75033343 14869177
-0.083536334 -0.052492522 0.75057149 13088920
-0.078571431 -0.050000004 0.75000006 8543591
-0.1516 -0.049089525 0.75800002 6776406
-0.14411876 -0.046033178 0.75610352 6643815
-0.13484827 -0.044797432 0.75452167 7038579
-0.12519595 -0.043801114 0.75190264 7630202
-0.11684142 -0.042356499 0.75047374 7762043
-0.081249952 -0.044636831 0.75055557 12828100
-0.077315792 -0.043371528 0.75242108 10259844
-0.13277683 -0.037128888 0.75699997 6509911
-0.12516591 -0.035008837 0.75590914 6709607
-0.11471846 -0.035055812 0.75458133 7301746
-0.10477813 -0.034111563 0.75173926 7696503
-0.09496811 -0.032669924 0.75212914 7959160
-0.084511288 -0.034153484 0.75105011 8289157
-0.077238098 -0.036008969 0.75258827 8748152
-0.12416762 -0.028876189 0.75800002 5854038
-0.10485071 -0.02694477 0.75620842 7499380
-0.09582746 -0.027645491 0.75688237 7561312
-0.086216509 -0.028972698 0.75433338 7555930
-0.1512762 -0.047771432 0.76000005 7038309
-0.14335367 -0.041095875 0.76150006 4857922
-0.13897143 -0.040533334 0.76000005 3932469
-0.14248 -0.038989998 0.76525009 4587786
-0.1377362 -0.037937462 0.76116675 5114637
-0.12127763 -0.030771907 0.76025009 6447462
-0.11653334 -0.030400002 0.76000005 6907246
-0.12162654 -0.025359185 0.76407152 6644324
-0.11503465 -0.024552699 0.7632128 6439249
-0.104493 -0.022006711 0.76147836 8013907
-0.095233105 -0.023415959 0.7651723 8071477
-0.089136198 -0.025911113 0.76300013 7933735
-0.11278611 -0.016318882 0.7666471 5308937
-0.10488886 -0.015398094 0.76560956 6161934
-0.097222842 -0.016731005 0.76755553 6882060
-0.15123285 -0.032168094 0.77649999 6377562
-0.14490195 -0.034225173 0.77497303 5640983
-0.13933334 -0.036666669 0.77000004 5505299
-0.15245639 -0.02877143 0.77860004 6375492
-0.14611867 -0.029075047 0.77880013 5969169
-0.091666669 -0.021266667 0.77000004 7865883
-0.089466669 -0.021266667 0.77000004 7275569
-0.1215401 -0.015408888 0.77500004 8615274
-0.1162647 -0.013344621 0.77225935 6033425
-0.10495746 -0.010275557 0.77066672 5767427
-0.094070591 -0.013357501 0.77131259 6947847
-0.089466669 -0.019066667 0.77000004 7078188
-0.12018858 -0.0066771433 0.77900004 8550777
-0.11446341 -0.0052746129 0.77608573 7294021
-0.10492658 -0.0050712186 0.77507329 7287339
-0.095614679 -0.0059590475 0.77688241 9132116
-0.088533983 -0.0079136519 0.77900004 11445661
-0.11239858 0.00037095239 0.77900004 7303028
-0.10488518 0.0024558292 0.77858615 8288642
-0.098920643 0.0017311112 0.77900004 9538453
-0.15250641 -0.02505796 0.78385723 5968670
-0.14787979 -0.025166983 0.78244442 5972780
-0.12419938 -0.011942859 0.78400004 9737868
-0.12407284 -0.0055337143 0.78474998 7697791
-0.11885715 -0.0014857143 0.78000003 7171185
-0.09240932 -0.0026450797 0.78111118 11116711
-0.088071011 -0.0039234636 0.78127283 11511457
-0.12064619 0.003938572 0.78562504 6840173
-0.11508983 0.0049204016 0.78415793 6841192
-0.10531881 0.0075373817 0.78150004 7893627
-0.094649404 0.0050087627 0.78300005 10459550
-0.088141292 0.0033518209 0.78588247 11709100
-0.11362173 0.012113396 0.78833348 7959158
-0.10455408 0.014633093 0.78623253 8616834
-0.095097728 0.014515065 0.78684092 10261919
-0.10119238 0.021540953 0.78900003 9340046
-0.096934289 0.02104 0.78900003 9867160
-0.12806667 -0.010546667 0.79100001 7041398
-0.12806667 -0.0090400008 0.79100001 7106166
-0.12321525 0.0085860323 0.79533339 8023927
-0.086383499 0.0078982012 0.79411119 11906485
-0.12205451 0.015058464 0.79638463 9341068
-0.11616649 0.01671626 0.79240757 9406861
-0.10878134 0.018984001 0.79100001 9274506
-0.090902224 0.017828891 0.79100001 11117225
-0.086102977 0.014975821 0.79505575 11906483
-0.12155648 0.024746398 0.79771435 8552071
-0.11498152 0.024963906 0.79425007 9210002
-0.10521261 0.025051037 0.79141194 9998232
-0.094786674 0.025286164 0.79189473 10393246
-0.086956345 0.024622245 0.79592019 11446190
-0.12008001 0.030400002 0.79800004 7038570
-0.11404182 0.032584414 0.79731828 6972779
-0.10499036 0.034932174 0.79560477 8025987
-0.095193878 0.034668688 0.79491478 10591397
-0.08860673 0.034127112 0.79746675 11248298
-0.10302223 0.041715559 0.79799998 7039083
-0.095174238 0.042709067 0.79778957 8092040
-0.089680001 0.041040003 0.79800004 11314605
-0.13207117 0.016009824 0.80673671 10723239
-0.12678632 0.015357923 0.80281824 10394015
-0.081912808 0.017639365 0.80133343 12235191
-0.079568259 0.018363176 0.8033334 12235192
-0.13288224 0.025246352 0.80533338 7170932
-0.12598401 0.025270246 0.80111998 7762558
-0.082429126 0.025771877 0.80141187 11840691
-0.078582384 0.024273572 0.80599993 11972276
-0.13261117 0.031396467 0.80685729 6709860
-0.12430553 0.034219943 0.80433339 6705242
-0.11589447 0.037691813 0.80110008 6772577
-0.10971429 0.039619051 0.80000001 6974835
-0.084006056 0.035510704 0.80235302 11445932
-0.07902395 0.035233472 0.8067143 11511724
-0.12127697 0.043093335 0.80800003 5454644
-0.11471809 0.045122687 0.80617648 5054762
-0.10537419 0.045840133 0.80213803 6309202
-0.094292954 0.047338098 0.80040008 7433337
-0.084725544 0.045250796 0.80395257 10985639
-0.079027809 0.041820191 0.80720007 11248551
-0.11235049 0.050788574 0.80800003 3479077
-0.10422832 0.052063249 0.80706656 5055031
-0.094268858 0.053788062 0.80533344 7301746
-0.085642755 0.053976648 0.80664521 9078416
-0.14247392 0.01800305 0.81480008 8552305
-0.13723345 0.016337568 0.81255561 10656932
-0.14349984 0.024363048 0.81568009 7894905
-0.13833036 0.024730068 0.81142873 7565942
-0.074909426 0.026599789 0.81088907 11906729
-0.14137143 0.033008765 0.8174001 6644581
-0.13554476 0.035531279 0.81380004 6045516
-0.12867749 0.037574608 0.81066668 5311524
-0.073708393 0.034936801 0.81345463 11577257
-0.068460248 0.035791904 0.81687504 9205364
-0.13283397 0.043807615 0.81626105 3348001
-0.12549376 0.045573279 0.81306058 3938091
-0.11880001 0.048600003 0.81000006 3741228
-0.07444191 0.045078404 0.81547731 11116964
-0.067971438 0.042788576 0.81900012 9997709
-0.12324235 0.05411474 0.81717658 4076091
-0.11512762 0.05546432 0.81394279 4597553
-0.10512745 0.056570739 0.81163651 5117739
-0.097508587 0.058011439 0.81000006 6641764
-0.081758618 0.056475159 0.81127274 10131099
-0.076220147 0.054645721 0.81550002 10722207
-0.11394145 0.061712857 0.81850016 3749192
-0.10437066 0.063794352 0.81613803 5459281
-0.095171489 0.064429604 0.81367564 6115418
-0.085132033 0.064236 0.81375611 8091517
-0.07847932 0.063465983 0.81809098 10130325
-0.095063679 0.070126534 0.81814301 5784644
-0.084620744 0.070605293 0.81766677 7762040
-0.15122285 0.029929524 0.82700002 6972779
-0.14802732 0.026964022 0.82188892 7171184
-0.15198749 0.032923542 0.82871431 6774885
-0.14564475 0.035578966 0.82499993 6511199
-0.14237335 0.044425175 0.8265714 4725801
-0.13776396 0.045576356 0.82266676 4270378
-0.070371434 0.0484781 0.82100004 10788515
-0.066675156 0.045634806 0.82100004 9337204
-0.1335208 0.054141209 0.82600009 4277319
-0.12679136 0.056923307 0.82246673 4538950
-0.071761161 0.056201149 0.82260001 10393754
-0.067741908 0.054408252 0.82388896 10130314
-0.13185048 0.060003813 0.82900006 5524805
-0.12406921 0.063645534 0.82547623 3882046
-0.11547834 0.066520557 0.82249999 2961212
-0.10790286 0.067914017 0.82100004 3486796
-0.074062914 0.06561137 0.82454842 9867154
-0.068269096 0.064255238 0.82827282 9735816
-0.12000763 0.071057148 0.82900006 4606818
-0.11371186 0.072920538 0.82722229 5592664
-0.10459905 0.074158087 0.82499993 5592410
-0.094980769 0.075359635 0.82420015 6510168
-0.084900349 0.075743414 0.82396758 7893878
-0.076630764 0.073189855 0.8267144 9406602
-0.10184858 0.081320956 0.82900006 5987434
-0.094981804 0.081765845 0.82850021 6575191
-0.085485607 0.081960462 0.82841182 7827317
-0.15267344 0.037906248 0.833 6577763
-0.14878859 0.039571431 0.83100003 6381674
-0.15210921 0.04334826 0.83766669 6249048
-0.14721048 0.045630485 0.83325005 5060933
-0.14433701 0.054194685 0.83574998 3354168
-0.13846633 0.05590754 0.83209103 3353141
-0.14164191 0.061768897 0.8386668 5263174
-0.13485481 0.064628154 0.83581489 4999247
-0.12667446 0.06802842 0.83216667 4802625
-0.066655874 0.068414599 0.83099997 8552321
-0.1322282 0.072343059 0.83840007 5723477
-0.12455422 0.075184301 0.83610332 4275007
-0.11586298 0.077676855 0.83323538 5789023
-0.10684286 0.079142861 0.83100003 5198425
-0.074007496 0.076765083 0.83380008 9406348
-0.068254665 0.073164575 0.83139992 9209475
-0.12198794 0.082035564 0.83900011 5459542
-0.11459552 0.084124699 0.83692318 5261632
-0.1054429 0.085223988 0.83437937 4339768
-0.094878972 0.086560868 0.83191675 6510169
-0.084118269 0.086655796 0.83170015 8090744
-0.078246668 0.085023329 0.83625001 9340553
-0.10220572 0.092624001 0.83840019 5984846
-0.094916672 0.09332478 0.8375001 6639960
-0.085657589 0.093131796 0.83772731 7827572
-0.079372071 0.091624133 0.83900011 9078149
-0.16152382 0.045226667 0.84800005 6511458
-0.15571302 0.046239551 0.84400016 6247768
-0.15240064 0.054920163 0.84591663 5458775
-0.14808571 0.058272388 0.84200001 4343866
-0.15102476 0.062994286 0.84800005 4273446
-0.14516921 0.065422446 0.84395659 4145979
-0.13894223 0.068402544 0.8416667 5724762
-0.14143589 0.072870165 0.84700006 5658200
-0.13595656 0.075654723 0.84422731 5131856
-0.12895334 0.077692382 0.84100002 5459789
-0.070651434 0.078680001 0.84300005 9472404
-0.068242863 0.077877149 0.84300005 8946558
-0.13219498 0.082512908 0.8463636 5855321
-0.12499007 0.084866591 0.84408706 6118236
-0.1150762 0.089211665 0.84200001 5720908
-0.10892952 0.089706667 0.84100002 4733477
-0.073889524 0.085302614 0.84495646 9275274
-0.069455236 0.0888381 0.84800005 6910578
-0.12214827 0.091476828 0.84750003 5911108
-0.11479887 0.094186582 0.8455199 5844022
-0.10606867 0.095923916 0.84313631 5779254
-0.0951754 0.098886162 0.84361541 6570571
-0.083923697 0.097990133 0.84252936 8025462
-0.075326353 0.093959689 0.84445834 8223090
-0.069455236 0.090453334 0.84800005 6318432
-0.11145144 0.10014477 0.84800005 5833511
-0.10499048 0.10146634 0.84800011 5770256
-0.094783947 0.1025026 0.8465001 7034459
-0.084651433 0.1031943 0.84650004 6644065
-0.078104496 0.10160491 0.84671432 4800836
-0.16200095 0.048195235 0.85049999 6380383
-0.16281794 0.054339722 0.85529411 6314845
-0.1575283 0.05512068 0.8525883 5919567
-0.16112381 0.063144132 0.85733336 6116183
-0.15534623 0.064383678 0.85419059 5065802
-0.14947809 0.069053337 0.85300004 4405298
-0.15187113 0.072669208 0.85733336 4802639
-0.14540032 0.07605271 0.85250014 4474708
-0.14346606 0.084469222 0.85644436 5513519
-0.13636208 0.086060964 0.85318184 5517371
-0.12838572 0.088695236 0.85049999 5916499
-0.071238101 0.084190488 0.85000008 9144714
-0.068646938 0.084263898 0.85072738 7893616
-0.14054857 0.091520004 0.85800004 6242611
-0.13369043 0.094747692 0.85592318 6241326
-0.12572314 0.095527321 0.85232002 6038310
-0.11792064 0.098222226 0.85000002 5704205
-0.13118604 0.10179175 0.85733336 5264214
-0.12447397 0.10285535 0.85568416 5593682
-0.11464833 0.10489512 0.85375017 5785928
-0.10508243 0.10663518 0.85290921 6314836
-0.094967626 0.10729614 0.85270602 6974567
-0.087435558 0.10773715 0.85266674 5195329
-0.16241859 0.065799534 0.86350006 5919315
-0.15808144 0.068569526 0.86225003 4738379
-0.1615815 0.073704496 0.8681429 5394251
-0.15547135 0.075226769 0.86324996 5058622
-0.15245767 0.083654903 0.86572737 5582887
-0.14753336 0.086917385 0.86300009 5709851
-0.13792655 0.097648449 0.86057156 6184535
-0.16249683 0.078619681 0.8720001 5460041
-0.15843904 0.079634286 0.87100005 5715519
-0.16170248 0.083688766 0.87520009 5063496
-0.15668096 0.08592619 0.87275016 5197122
